ply
format ascii 1.0
element vertex 1171
property float x
property float y
property float z
property uchar green
property uchar blue
property uchar red
element face 0
property list uint8 int32 vertex_index
end_header
23.52941 -28.23529 -69.41176 167 142 190
23.52941 -28.23529 -68.23529 158 132 184
24.70588 -29.41176 -69.41176 175 133 195
24.70588 -29.41176 -68.23529 177 149 196
25.88235 -31.76471 -70.58824 165 134 186
25.88235 -30.58824 -70.58824 169 134 190
27.05882 -31.76471 -70.58824 166 127 188
27.05882 -30.58824 -70.58824 177 130 198
25.88235 -30.58824 -69.41176 178 143 200
25.88235 -30.58824 -68.23529 181 147 206
27.05882 -31.76471 -69.41176 141 106 163
27.05882 -30.58824 -69.41176 167 130 188
27.05882 -30.58824 -68.23529 172 135 194
25.88235 -29.41176 -68.23529 174 142 197
27.05882 -29.41176 -68.23529 181 144 203
23.52941 -27.05882 -69.41176 146 126 170
23.52941 -27.05882 -68.23529 160 134 188
23.52941 -25.88235 -69.41176 160 137 183
23.52941 -25.88235 -68.23529 157 131 183
23.52941 -23.52941 -70.58824 158 123 189
23.52941 -24.70588 -69.41176 159 134 182
23.52941 -24.70588 -68.23529 150 134 173
23.52941 -23.52941 -69.41176 154 122 181
23.52941 -23.52941 -68.23529 150 126 176
23.52941 -28.23529 -67.05882 154 134 178
23.52941 -28.23529 -65.88235 145 129 168
24.70588 -29.41176 -67.05882 174 157 190
24.70588 -28.23529 -67.05882 164 141 184
24.70588 -28.23529 -65.88235 160 138 176
27.05882 -30.58824 -67.05882 182 147 204
25.88235 -29.41176 -67.05882 169 133 187
25.88235 -29.41176 -65.88235 180 157 202
25.88235 -28.23529 -67.05882 170 132 188
25.88235 -28.23529 -65.88235 161 130 182
27.05882 -29.41176 -67.05882 176 139 198
27.05882 -29.41176 -65.88235 187 150 209
27.05882 -28.23529 -65.88235 175 143 198
25.88235 -28.23529 -64.70588 165 132 184
27.05882 -28.23529 -64.70588 185 153 208
27.05882 -28.23529 -63.52941 189 143 213
23.52941 -27.05882 -67.05882 171 142 200
23.52941 -27.05882 -65.88235 169 143 197
23.52941 -25.88235 -67.05882 173 145 202
23.52941 -25.88235 -65.88235 185 156 214
24.70588 -27.05882 -65.88235 155 139 178
23.52941 -27.05882 -64.70588 183 152 212
23.52941 -25.88235 -64.70588 185 154 214
24.70588 -27.05882 -64.70588 166 142 192
24.70588 -27.05882 -63.52941 177 148 200
24.70588 -25.88235 -64.70588 184 155 213
24.70588 -25.88235 -63.52941 167 138 192
23.52941 -24.70588 -67.05882 168 140 196
23.52941 -24.70588 -65.88235 177 148 206
23.52941 -23.52941 -67.05882 171 145 199
23.52941 -23.52941 -65.88235 166 137 194
23.52941 -24.70588 -64.70588 182 153 211
23.52941 -23.52941 -64.70588 168 139 197
24.70588 -24.70588 -64.70588 182 153 211
24.70588 -24.70588 -63.52941 178 149 206
24.70588 -23.52941 -64.70588 178 150 207
24.70588 -23.52941 -63.52941 170 142 198
25.88235 -27.05882 -64.70588 157 134 179
25.88235 -27.05882 -63.52941 170 141 193
25.88235 -25.88235 -63.52941 182 153 210
27.05882 -27.05882 -64.70588 189 157 214
27.05882 -27.05882 -63.52941 167 137 188
27.05882 -25.88235 -63.52941 173 136 195
24.70588 -24.70588 -62.35294 154 125 179
24.70588 -23.52941 -62.35294 162 133 190
25.88235 -25.88235 -62.35294 173 147 201
25.88235 -25.88235 -61.17647 152 114 179
27.05882 -27.05882 -62.35294 147 133 166
27.05882 -25.88235 -62.35294 162 131 183
27.05882 -25.88235 -61.17647 171 136 193
25.88235 -24.70588 -62.35294 162 133 187
25.88235 -24.70588 -61.17647 177 149 206
25.88235 -23.52941 -62.35294 159 129 184
25.88235 -23.52941 -61.17647 163 134 191
27.05882 -24.70588 -61.17647 182 150 209
25.88235 -24.70588 -60.00000 206 168 234
25.88235 -23.52941 -60.00000 184 155 212
25.88235 -23.52941 -58.82353 180 151 208
27.05882 -24.70588 -60.00000 191 153 219
27.05882 -24.70588 -58.82353 194 155 225
27.05882 -23.52941 -60.00000 196 154 224
27.05882 -23.52941 -58.82353 183 151 210
18.82353 -22.35294 -70.58824 168 131 189
18.82353 -21.17647 -70.58824 158 128 177
20.00000 -22.35294 -70.58824 184 135 207
20.00000 -21.17647 -70.58824 181 136 202
18.82353 -20.00000 -71.76471 130 106 146
18.82353 -20.00000 -70.58824 143 113 164
18.82353 -18.82353 -71.76471 136 112 154
20.00000 -20.00000 -71.76471 138 121 157
20.00000 -20.00000 -70.58824 152 123 166
20.00000 -18.82353 -71.76471 123 93 144
20.00000 -18.82353 -70.58824 129 108 143
21.17647 -22.35294 -70.58824 168 123 188
21.17647 -21.17647 -70.58824 151 117 168
22.35294 -22.35294 -70.58824 148 119 171
22.35294 -21.17647 -70.58824 155 124 174
22.35294 -22.35294 -69.41176 175 144 206
22.35294 -21.17647 -69.41176 173 136 194
21.17647 -20.00000 -70.58824 150 123 164
21.17647 -18.82353 -70.58824 162 130 177
22.35294 -20.00000 -70.58824 156 122 173
22.35294 -18.82353 -70.58824 165 131 182
22.35294 -20.00000 -69.41176 170 133 184
22.35294 -18.82353 -69.41176 159 130 174
22.35294 -18.82353 -68.23529 161 130 176
18.82353 -17.64706 -71.76471 168 138 179
18.82353 -16.47059 -71.76471 145 117 163
20.00000 -17.64706 -71.76471 128 96 143
20.00000 -17.64706 -70.58824 125 107 135
20.00000 -16.47059 -71.76471 152 122 171
20.00000 -16.47059 -70.58824 168 132 186
18.82353 -15.29412 -71.76471 171 137 188
18.82353 -14.11765 -71.76471 165 132 186
20.00000 -15.29412 -71.76471 164 124 181
20.00000 -15.29412 -70.58824 161 121 179
20.00000 -14.11765 -71.76471 151 113 168
20.00000 -14.11765 -70.58824 158 129 173
21.17647 -17.64706 -70.58824 153 128 167
21.17647 -16.47059 -70.58824 176 140 194
22.35294 -17.64706 -70.58824 177 146 196
22.35294 -16.47059 -70.58824 185 147 203
21.17647 -16.47059 -69.41176 158 129 173
22.35294 -17.64706 -69.41176 156 128 174
22.35294 -17.64706 -68.23529 176 146 197
22.35294 -16.47059 -69.41176 164 132 181
22.35294 -16.47059 -68.23529 166 136 185
21.17647 -15.29412 -70.58824 162 126 180
21.17647 -14.11765 -70.58824 165 134 184
21.17647 -15.29412 -69.41176 154 116 172
21.17647 -14.11765 -69.41176 175 138 196
22.35294 -15.29412 -69.41176 155 122 176
22.35294 -15.29412 -68.23529 157 126 174
22.35294 -14.11765 -69.41176 176 134 196
22.35294 -14.11765 -68.23529 154 127 176
23.52941 -22.35294 -69.41176 165 133 190
23.52941 -22.35294 -68.23529 159 123 184
23.52941 -21.17647 -69.41176 187 150 209
23.52941 -21.17647 -68.23529 180 139 204
23.52941 -20.00000 -69.41176 167 142 179
23.52941 -20.00000 -68.23529 156 125 170
23.52941 -18.82353 -68.23529 159 137 175
23.52941 -17.64706 -68.23529 149 123 167
23.52941 -16.47059 -68.23529 148 116 165
18.82353 -15.29412 -63.52941 115 104 128
18.82353 -14.11765 -63.52941 119 102 134
20.00000 -15.29412 -63.52941 114 101 127
20.00000 -14.11765 -64.70588 113 95 129
20.00000 -14.11765 -63.52941 115 100 130
22.35294 -16.47059 -67.05882 170 130 188
21.17647 -16.47059 -63.52941 105 90 120
22.35294 -16.47059 -63.52941 134 112 150
22.35294 -15.29412 -67.05882 142 108 159
22.35294 -14.11765 -67.05882 131 117 150
22.35294 -14.11765 -65.88235 133 106 156
21.17647 -15.29412 -63.52941 109 95 126
21.17647 -14.11765 -64.70588 115 98 130
21.17647 -14.11765 -63.52941 114 97 129
22.35294 -15.29412 -64.70588 117 97 133
22.35294 -15.29412 -63.52941 118 101 133
22.35294 -14.11765 -64.70588 112 93 132
22.35294 -14.11765 -63.52941 113 95 128
18.82353 -16.47059 -62.35294 119 106 134
18.82353 -16.47059 -61.17647 122 101 136
20.00000 -16.47059 -62.35294 108 93 123
20.00000 -16.47059 -61.17647 109 91 125
18.82353 -16.47059 -60.00000 125 101 143
18.82353 -16.47059 -58.82353 114 97 129
20.00000 -16.47059 -60.00000 123 107 142
20.00000 -16.47059 -58.82353 126 106 144
18.82353 -15.29412 -62.35294 111 94 127
18.82353 -15.29412 -61.17647 116 103 131
20.00000 -15.29412 -62.35294 114 110 128
21.17647 -16.47059 -62.35294 104 86 120
21.17647 -16.47059 -61.17647 109 89 127
22.35294 -16.47059 -62.35294 102 82 118
22.35294 -16.47059 -61.17647 107 86 127
21.17647 -16.47059 -60.00000 111 94 127
21.17647 -16.47059 -58.82353 108 91 123
22.35294 -16.47059 -60.00000 120 101 140
22.35294 -16.47059 -58.82353 115 94 129
23.52941 -22.35294 -67.05882 156 127 181
23.52941 -22.35294 -65.88235 150 122 178
23.52941 -21.17647 -67.05882 153 123 172
23.52941 -21.17647 -65.88235 169 137 194
23.52941 -22.35294 -64.70588 165 136 194
23.52941 -21.17647 -64.70588 177 143 204
23.52941 -21.17647 -63.52941 177 146 206
24.70588 -22.35294 -64.70588 178 149 206
24.70588 -22.35294 -63.52941 158 129 183
24.70588 -21.17647 -63.52941 176 143 205
23.52941 -20.00000 -67.05882 161 140 175
23.52941 -20.00000 -65.88235 150 126 166
23.52941 -18.82353 -67.05882 160 129 174
23.52941 -18.82353 -65.88235 144 115 158
23.52941 -20.00000 -64.70588 156 130 175
23.52941 -20.00000 -63.52941 174 151 196
23.52941 -18.82353 -64.70588 159 130 174
23.52941 -18.82353 -63.52941 158 127 172
24.70588 -20.00000 -63.52941 181 152 206
24.70588 -18.82353 -63.52941 190 158 205
24.70588 -22.35294 -62.35294 153 124 181
24.70588 -21.17647 -62.35294 147 118 172
24.70588 -20.00000 -62.35294 151 121 174
24.70588 -20.00000 -61.17647 139 107 164
24.70588 -18.82353 -62.35294 182 149 203
24.70588 -18.82353 -61.17647 150 118 167
25.88235 -22.35294 -62.35294 160 131 188
25.88235 -22.35294 -61.17647 164 135 189
25.88235 -21.17647 -62.35294 147 121 173
25.88235 -21.17647 -61.17647 152 123 175
25.88235 -22.35294 -60.00000 160 134 186
25.88235 -22.35294 -58.82353 168 139 197
25.88235 -21.17647 -60.00000 154 128 180
25.88235 -21.17647 -58.82353 158 131 181
27.05882 -22.35294 -58.82353 168 136 195
27.05882 -21.17647 -58.82353 160 131 185
25.88235 -20.00000 -62.35294 144 112 167
25.88235 -20.00000 -61.17647 144 115 172
25.88235 -18.82353 -61.17647 134 101 155
25.88235 -20.00000 -60.00000 153 124 181
25.88235 -20.00000 -58.82353 140 114 166
25.88235 -18.82353 -60.00000 132 109 155
25.88235 -18.82353 -58.82353 138 108 161
27.05882 -20.00000 -58.82353 149 122 172
27.05882 -18.82353 -58.82353 148 118 173
23.52941 -17.64706 -67.05882 153 129 169
23.52941 -17.64706 -65.88235 156 125 170
23.52941 -16.47059 -67.05882 153 125 171
23.52941 -16.47059 -65.88235 128 113 143
23.52941 -17.64706 -64.70588 166 134 181
23.52941 -17.64706 -63.52941 164 124 181
23.52941 -16.47059 -64.70588 156 134 172
23.52941 -16.47059 -63.52941 143 115 161
24.70588 -17.64706 -63.52941 172 138 189
24.70588 -16.47059 -63.52941 159 127 174
23.52941 -15.29412 -67.05882 120 102 136
23.52941 -15.29412 -65.88235 118 100 133
23.52941 -14.11765 -67.05882 116 98 126
23.52941 -14.11765 -65.88235 146 120 165
23.52941 -15.29412 -64.70588 130 107 152
23.52941 -15.29412 -63.52941 114 94 132
23.52941 -14.11765 -64.70588 126 96 149
23.52941 -16.47059 -62.35294 130 99 151
23.52941 -16.47059 -61.17647 128 96 153
24.70588 -17.64706 -62.35294 184 155 199
24.70588 -17.64706 -61.17647 165 134 184
24.70588 -16.47059 -62.35294 179 146 198
24.70588 -16.47059 -61.17647 142 100 169
23.52941 -17.64706 -60.00000 111 79 136
23.52941 -17.64706 -58.82353 115 90 137
23.52941 -16.47059 -60.00000 116 87 139
23.52941 -16.47059 -58.82353 118 102 137
24.70588 -17.64706 -60.00000 136 100 163
24.70588 -17.64706 -58.82353 142 110 165
24.70588 -16.47059 -60.00000 123 89 150
25.88235 -17.64706 -61.17647 147 116 164
25.88235 -17.64706 -60.00000 142 116 160
25.88235 -17.64706 -58.82353 155 121 180
10.58824 -31.76471 -45.88235 146 132 163
10.58824 -31.76471 -44.70588 127 99 146
11.76471 -31.76471 -45.88235 132 111 144
11.76471 -31.76471 -44.70588 128 98 149
11.76471 -30.58824 -44.70588 121 100 141
12.94118 -31.76471 -45.88235 132 109 146
12.94118 -31.76471 -44.70588 129 103 148
12.94118 -30.58824 -44.70588 116 94 132
9.41176 -31.76471 -43.52941 132 106 150
9.41176 -30.58824 -43.52941 130 109 150
10.58824 -31.76471 -43.52941 118 89 141
10.58824 -30.58824 -43.52941 123 103 141
9.41176 -29.41176 -43.52941 111 96 124
9.41176 -28.23529 -43.52941 128 107 148
9.41176 -28.23529 -42.35294 140 117 163
10.58824 -29.41176 -43.52941 119 101 135
10.58824 -28.23529 -43.52941 117 101 136
11.76471 -31.76471 -43.52941 125 94 146
11.76471 -30.58824 -43.52941 123 101 141
12.94118 -30.58824 -43.52941 123 95 142
11.76471 -29.41176 -43.52941 129 110 151
11.76471 -28.23529 -43.52941 109 93 128
12.94118 -29.41176 -43.52941 123 102 145
12.94118 -28.23529 -43.52941 111 94 131
12.94118 -28.23529 -42.35294 100 84 119
11.76471 -28.23529 -41.17647 115 96 135
11.76471 -28.23529 -40.00000 131 106 154
12.94118 -28.23529 -41.17647 101 85 121
12.94118 -28.23529 -40.00000 113 92 133
9.41176 -27.05882 -43.52941 137 119 161
9.41176 -27.05882 -42.35294 137 118 157
9.41176 -25.88235 -43.52941 135 112 157
9.41176 -25.88235 -42.35294 129 108 151
10.58824 -27.05882 -43.52941 142 117 165
10.58824 -27.05882 -42.35294 126 107 146
10.58824 -25.88235 -42.35294 121 104 141
9.41176 -25.88235 -41.17647 128 108 152
10.58824 -27.05882 -41.17647 122 103 142
10.58824 -27.05882 -40.00000 136 112 162
10.58824 -25.88235 -41.17647 122 103 144
10.58824 -25.88235 -40.00000 128 108 152
9.41176 -24.70588 -43.52941 137 116 159
9.41176 -24.70588 -42.35294 120 101 140
9.41176 -24.70588 -41.17647 130 107 152
9.41176 -24.70588 -40.00000 131 105 157
9.41176 -23.52941 -40.00000 119 89 144
10.58824 -24.70588 -40.00000 122 97 144
10.58824 -23.52941 -40.00000 135 125 152
11.76471 -27.05882 -43.52941 125 102 145
11.76471 -27.05882 -42.35294 128 105 150
12.94118 -27.05882 -43.52941 120 104 140
12.94118 -27.05882 -42.35294 117 98 139
11.76471 -27.05882 -41.17647 119 103 139
11.76471 -27.05882 -40.00000 136 110 162
12.94118 -27.05882 -41.17647 108 93 131
15.29412 -31.76471 -47.05882 117 96 129
14.11765 -31.76471 -45.88235 133 109 149
14.11765 -31.76471 -44.70588 126 99 141
14.11765 -30.58824 -44.70588 115 98 131
15.29412 -31.76471 -45.88235 122 99 136
15.29412 -31.76471 -44.70588 124 98 142
15.29412 -30.58824 -44.70588 114 92 130
16.47059 -31.76471 -47.05882 121 98 135
17.64706 -31.76471 -47.05882 127 103 143
16.47059 -31.76471 -45.88235 127 103 143
16.47059 -30.58824 -45.88235 128 106 144
16.47059 -30.58824 -44.70588 118 94 136
17.64706 -31.76471 -45.88235 117 98 129
17.64706 -30.58824 -45.88235 125 102 145
17.64706 -30.58824 -44.70588 119 93 138
14.11765 -30.58824 -43.52941 120 101 140
15.29412 -30.58824 -43.52941 118 98 136
14.11765 -29.41176 -43.52941 114 97 134
14.11765 -28.23529 -43.52941 105 91 122
14.11765 -28.23529 -42.35294 95 81 112
15.29412 -29.41176 -43.52941 121 101 139
15.29412 -28.23529 -43.52941 110 94 129
15.29412 -28.23529 -42.35294 98 86 117
14.11765 -28.23529 -41.17647 90 80 107
14.11765 -28.23529 -40.00000 107 90 126
15.29412 -28.23529 -41.17647 93 83 110
15.29412 -28.23529 -40.00000 109 90 131
16.47059 -30.58824 -43.52941 119 93 138
16.47059 -29.41176 -43.52941 120 100 138
16.47059 -28.23529 -43.52941 101 88 116
16.47059 -28.23529 -42.35294 97 83 114
17.64706 -29.41176 -43.52941 115 94 137
17.64706 -28.23529 -43.52941 94 86 111
17.64706 -28.23529 -42.35294 95 83 114
16.47059 -29.41176 -41.17647 97 83 116
16.47059 -29.41176 -40.00000 109 90 129
16.47059 -28.23529 -41.17647 93 81 110
16.47059 -28.23529 -40.00000 115 94 137
17.64706 -29.41176 -41.17647 98 84 117
17.64706 -29.41176 -40.00000 102 86 121
17.64706 -28.23529 -41.17647 103 87 122
17.64706 -28.23529 -40.00000 112 92 130
9.41176 -16.47059 -57.64706 134 112 152
9.41176 -16.47059 -56.47059 142 117 164
10.58824 -16.47059 -57.64706 126 103 146
10.58824 -16.47059 -56.47059 133 107 151
9.41176 -16.47059 -55.29412 165 135 186
9.41176 -16.47059 -54.11765 153 131 171
10.58824 -16.47059 -55.29412 142 118 160
10.58824 -16.47059 -54.11765 139 122 159
11.76471 -16.47059 -57.64706 108 86 124
11.76471 -16.47059 -56.47059 111 94 127
12.94118 -16.47059 -57.64706 109 91 124
12.94118 -16.47059 -56.47059 112 97 125
11.76471 -16.47059 -55.29412 122 105 138
11.76471 -16.47059 -54.11765 126 114 143
12.94118 -16.47059 -55.29412 134 111 148
12.94118 -16.47059 -54.11765 132 120 149
9.41176 -16.47059 -52.94118 151 131 169
9.41176 -16.47059 -51.76471 139 117 157
10.58824 -16.47059 -52.94118 125 111 142
10.58824 -16.47059 -51.76471 127 107 145
9.41176 -16.47059 -50.58824 144 122 160
10.58824 -16.47059 -50.58824 129 112 145
9.41176 -15.29412 -50.58824 148 122 167
9.41176 -15.29412 -49.41176 161 136 183
9.41176 -14.11765 -49.41176 160 148 177
10.58824 -15.29412 -50.58824 133 116 152
10.58824 -15.29412 -49.41176 128 111 144
10.58824 -14.11765 -50.58824 125 108 140
10.58824 -14.11765 -49.41176 122 112 139
11.76471 -16.47059 -52.94118 117 111 134
11.76471 -16.47059 -51.76471 120 101 140
12.94118 -16.47059 -52.94118 126 118 142
12.94118 -16.47059 -51.76471 142 129 157
11.76471 -15.29412 -51.76471 133 115 149
12.94118 -15.29412 -51.76471 150 128 168
11.76471 -15.29412 -50.58824 142 125 158
11.76471 -14.11765 -50.58824 137 122 150
11.76471 -14.11765 -49.41176 120 106 137
12.94118 -15.29412 -50.58824 165 143 181
12.94118 -14.11765 -50.58824 152 137 167
12.94118 -14.11765 -49.41176 149 131 164
14.11765 -16.47059 -57.64706 117 88 131
14.11765 -16.47059 -56.47059 117 102 132
15.29412 -16.47059 -57.64706 149 124 163
15.29412 -16.47059 -56.47059 131 109 149
14.11765 -16.47059 -55.29412 136 105 155
14.11765 -16.47059 -54.11765 138 121 153
15.29412 -16.47059 -55.29412 114 97 129
15.29412 -16.47059 -54.11765 147 133 166
16.47059 -16.47059 -57.64706 123 105 138
16.47059 -16.47059 -56.47059 127 109 142
17.64706 -16.47059 -57.64706 125 108 141
17.64706 -16.47059 -56.47059 124 107 139
16.47059 -16.47059 -55.29412 129 116 142
16.47059 -16.47059 -54.11765 151 133 166
17.64706 -16.47059 -55.29412 145 122 159
17.64706 -16.47059 -54.11765 141 123 153
14.11765 -16.47059 -52.94118 151 125 169
14.11765 -16.47059 -51.76471 124 104 142
15.29412 -16.47059 -52.94118 150 126 166
15.29412 -16.47059 -51.76471 141 119 157
14.11765 -15.29412 -51.76471 136 110 155
15.29412 -15.29412 -51.76471 155 129 174
14.11765 -15.29412 -50.58824 153 136 168
14.11765 -14.11765 -50.58824 147 134 160
14.11765 -14.11765 -49.41176 137 126 150
15.29412 -15.29412 -50.58824 130 116 140
15.29412 -14.11765 -50.58824 141 124 156
15.29412 -14.11765 -49.41176 124 115 135
16.47059 -16.47059 -52.94118 161 141 177
16.47059 -16.47059 -51.76471 164 141 178
17.64706 -16.47059 -52.94118 144 125 156
17.64706 -16.47059 -51.76471 152 127 164
16.47059 -15.29412 -51.76471 156 127 171
17.64706 -15.29412 -51.76471 140 121 152
16.47059 -15.29412 -50.58824 128 113 141
16.47059 -14.11765 -50.58824 119 105 136
17.64706 -15.29412 -50.58824 126 111 139
17.64706 -14.11765 -50.58824 116 105 131
9.41176 -22.35294 -40.00000 127 96 142
9.41176 -14.11765 -48.23529 172 143 195
10.58824 -14.11765 -48.23529 145 128 160
27.05882 -23.52941 -57.64706 185 153 210
27.05882 -23.52941 -56.47059 177 146 206
18.82353 -31.76471 -47.05882 131 108 151
20.00000 -31.76471 -47.05882 137 109 156
18.82353 -31.76471 -45.88235 116 98 131
18.82353 -30.58824 -45.88235 114 103 129
18.82353 -30.58824 -44.70588 119 97 137
20.00000 -31.76471 -45.88235 127 103 145
20.00000 -30.58824 -45.88235 109 94 122
20.00000 -30.58824 -44.70588 122 99 142
18.82353 -29.41176 -44.70588 100 91 121
18.82353 -28.23529 -44.70588 96 86 115
20.00000 -29.41176 -44.70588 126 107 148
20.00000 -28.23529 -44.70588 110 92 126
21.17647 -31.76471 -47.05882 129 102 143
22.35294 -31.76471 -47.05882 142 110 153
21.17647 -31.76471 -45.88235 130 102 148
21.17647 -30.58824 -45.88235 103 88 116
21.17647 -30.58824 -44.70588 118 96 136
22.35294 -31.76471 -45.88235 129 102 151
22.35294 -30.58824 -45.88235 109 96 122
22.35294 -30.58824 -44.70588 135 108 157
21.17647 -29.41176 -44.70588 121 96 144
21.17647 -28.23529 -44.70588 113 96 133
22.35294 -29.41176 -44.70588 120 97 142
22.35294 -28.23529 -44.70588 103 89 120
18.82353 -29.41176 -43.52941 122 97 145
18.82353 -28.23529 -43.52941 99 87 118
18.82353 -28.23529 -42.35294 96 84 115
20.00000 -29.41176 -43.52941 139 110 162
20.00000 -28.23529 -43.52941 101 87 120
20.00000 -28.23529 -42.35294 96 84 115
18.82353 -29.41176 -41.17647 101 87 120
18.82353 -29.41176 -40.00000 95 79 114
18.82353 -28.23529 -40.00000 116 96 134
20.00000 -29.41176 -41.17647 108 89 128
20.00000 -28.23529 -41.17647 105 88 125
20.00000 -28.23529 -40.00000 118 98 136
21.17647 -28.23529 -43.52941 95 83 114
21.17647 -28.23529 -42.35294 99 85 118
22.35294 -28.23529 -43.52941 100 86 119
22.35294 -28.23529 -42.35294 99 87 118
21.17647 -28.23529 -41.17647 106 90 125
21.17647 -28.23529 -40.00000 117 100 136
22.35294 -28.23529 -41.17647 109 92 128
22.35294 -28.23529 -40.00000 116 99 135
21.17647 -27.05882 -40.00000 137 106 156
22.35294 -27.05882 -40.00000 127 97 146
23.52941 -31.76471 -45.88235 123 99 139
23.52941 -30.58824 -45.88235 125 101 143
23.52941 -30.58824 -44.70588 140 109 161
24.70588 -31.76471 -45.88235 123 99 139
24.70588 -30.58824 -45.88235 138 109 161
24.70588 -30.58824 -44.70588 142 110 167
23.52941 -29.41176 -45.88235 121 100 141
23.52941 -29.41176 -44.70588 128 105 150
23.52941 -28.23529 -44.70588 126 107 146
24.70588 -29.41176 -45.88235 112 98 129
24.70588 -29.41176 -44.70588 127 105 145
24.70588 -28.23529 -44.70588 143 116 165
25.88235 -31.76471 -45.88235 132 108 148
25.88235 -30.58824 -45.88235 130 107 150
27.05882 -31.76471 -45.88235 137 107 156
27.05882 -30.58824 -45.88235 127 104 147
25.88235 -29.41176 -45.88235 112 99 127
25.88235 -29.41176 -44.70588 140 119 160
25.88235 -28.23529 -44.70588 143 116 166
27.05882 -29.41176 -45.88235 141 120 161
27.05882 -29.41176 -44.70588 147 120 170
27.05882 -28.23529 -45.88235 139 114 162
27.05882 -28.23529 -44.70588 140 113 163
23.52941 -28.23529 -43.52941 110 96 129
23.52941 -28.23529 -42.35294 106 87 126
23.52941 -28.23529 -41.17647 119 99 137
23.52941 -28.23529 -40.00000 117 103 136
23.52941 -27.05882 -44.70588 117 96 137
24.70588 -27.05882 -44.70588 123 104 145
25.88235 -27.05882 -44.70588 133 114 155
25.88235 -25.88235 -44.70588 132 113 154
27.05882 -27.05882 -45.88235 136 109 159
27.05882 -27.05882 -44.70588 145 121 171
27.05882 -25.88235 -45.88235 134 117 154
27.05882 -25.88235 -44.70588 139 120 161
27.05882 -24.70588 -45.88235 128 112 148
27.05882 -24.70588 -44.70588 134 115 156
23.52941 -27.05882 -43.52941 123 102 143
23.52941 -27.05882 -42.35294 91 80 104
23.52941 -25.88235 -42.35294 106 104 116
24.70588 -27.05882 -43.52941 112 100 131
24.70588 -27.05882 -42.35294 89 89 97
24.70588 -25.88235 -42.35294 120 111 133
23.52941 -27.05882 -41.17647 110 97 125
23.52941 -27.05882 -40.00000 114 94 132
23.52941 -25.88235 -41.17647 107 103 117
23.52941 -25.88235 -40.00000 123 97 142
24.70588 -25.88235 -41.17647 133 130 153
24.70588 -24.70588 -42.35294 154 134 172
24.70588 -23.52941 -42.35294 127 113 137
23.52941 -24.70588 -41.17647 152 130 170
23.52941 -24.70588 -40.00000 134 104 155
23.52941 -23.52941 -40.00000 152 115 173
24.70588 -24.70588 -41.17647 154 130 172
24.70588 -24.70588 -40.00000 155 132 177
24.70588 -23.52941 -41.17647 137 116 151
24.70588 -23.52941 -40.00000 154 122 171
25.88235 -27.05882 -43.52941 131 115 150
25.88235 -27.05882 -42.35294 131 119 150
25.88235 -25.88235 -43.52941 133 105 152
25.88235 -25.88235 -42.35294 138 109 161
27.05882 -25.88235 -43.52941 134 111 156
27.05882 -25.88235 -42.35294 122 95 144
25.88235 -24.70588 -42.35294 148 123 170
25.88235 -23.52941 -42.35294 124 110 133
27.05882 -24.70588 -43.52941 131 106 153
27.05882 -24.70588 -42.35294 125 98 147
27.05882 -23.52941 -43.52941 118 100 130
27.05882 -23.52941 -42.35294 123 104 135
18.82353 -16.47059 -57.64706 120 106 137
18.82353 -16.47059 -56.47059 118 104 128
20.00000 -16.47059 -57.64706 119 107 136
20.00000 -16.47059 -56.47059 129 111 141
18.82353 -16.47059 -55.29412 143 124 155
18.82353 -16.47059 -54.11765 161 134 175
20.00000 -16.47059 -55.29412 140 121 152
20.00000 -16.47059 -54.11765 151 129 167
21.17647 -16.47059 -57.64706 128 108 146
21.17647 -16.47059 -56.47059 148 127 162
22.35294 -16.47059 -57.64706 122 102 140
22.35294 -16.47059 -56.47059 159 139 175
21.17647 -16.47059 -55.29412 166 139 181
21.17647 -16.47059 -54.11765 164 137 179
22.35294 -16.47059 -55.29412 164 141 178
22.35294 -16.47059 -54.11765 171 140 190
18.82353 -16.47059 -52.94118 157 132 171
18.82353 -16.47059 -51.76471 161 138 175
20.00000 -16.47059 -52.94118 165 134 180
20.00000 -16.47059 -51.76471 139 110 154
18.82353 -15.29412 -51.76471 147 124 161
20.00000 -15.29412 -51.76471 141 125 160
18.82353 -15.29412 -50.58824 125 112 138
18.82353 -14.11765 -50.58824 129 113 148
20.00000 -15.29412 -50.58824 121 109 138
20.00000 -14.11765 -50.58824 128 118 145
21.17647 -16.47059 -52.94118 165 141 181
21.17647 -16.47059 -51.76471 126 106 144
22.35294 -16.47059 -52.94118 146 123 160
22.35294 -16.47059 -51.76471 134 114 150
21.17647 -15.29412 -51.76471 120 107 135
22.35294 -15.29412 -51.76471 148 130 164
21.17647 -15.29412 -50.58824 113 104 124
21.17647 -14.11765 -50.58824 121 109 138
22.35294 -15.29412 -50.58824 134 116 146
22.35294 -14.11765 -50.58824 132 115 147
27.05882 -22.35294 -57.64706 170 141 199
27.05882 -22.35294 -56.47059 180 147 211
27.05882 -21.17647 -57.64706 162 133 191
27.05882 -21.17647 -56.47059 177 145 204
27.05882 -20.00000 -57.64706 160 131 188
27.05882 -20.00000 -56.47059 162 133 190
27.05882 -18.82353 -57.64706 158 124 183
27.05882 -18.82353 -56.47059 147 114 168
23.52941 -17.64706 -57.64706 112 87 134
23.52941 -17.64706 -56.47059 114 85 142
23.52941 -16.47059 -57.64706 106 90 125
23.52941 -16.47059 -56.47059 123 93 144
24.70588 -17.64706 -57.64706 145 109 170
24.70588 -17.64706 -56.47059 137 97 165
24.70588 -16.47059 -56.47059 127 97 150
23.52941 -16.47059 -55.29412 167 136 182
23.52941 -16.47059 -54.11765 159 130 174
24.70588 -16.47059 -55.29412 154 119 175
24.70588 -16.47059 -54.11765 165 128 187
25.88235 -17.64706 -57.64706 162 124 189
25.88235 -17.64706 -56.47059 188 146 208
25.88235 -16.47059 -56.47059 176 137 198
27.05882 -17.64706 -57.64706 139 107 166
27.05882 -17.64706 -56.47059 144 106 171
27.05882 -16.47059 -56.47059 192 149 220
25.88235 -16.47059 -55.29412 175 134 199
25.88235 -16.47059 -54.11765 193 154 217
27.05882 -17.64706 -55.29412 137 95 165
27.05882 -16.47059 -55.29412 168 132 193
27.05882 -16.47059 -54.11765 181 140 203
23.52941 -16.47059 -52.94118 149 128 163
23.52941 -16.47059 -51.76471 137 120 156
24.70588 -16.47059 -52.94118 151 121 172
24.70588 -16.47059 -51.76471 140 126 160
23.52941 -15.29412 -51.76471 142 122 158
24.70588 -15.29412 -51.76471 148 116 163
23.52941 -15.29412 -50.58824 141 123 156
23.52941 -14.11765 -50.58824 145 119 164
24.70588 -15.29412 -50.58824 165 131 182
24.70588 -14.11765 -50.58824 156 125 175
25.88235 -16.47059 -52.94118 171 140 190
25.88235 -16.47059 -51.76471 158 122 175
27.05882 -16.47059 -52.94118 171 136 192
25.88235 -15.29412 -51.76471 176 140 193
25.88235 -14.11765 -51.76471 157 123 182
27.05882 -15.29412 -52.94118 162 125 183
27.05882 -15.29412 -51.76471 181 146 202
27.05882 -14.11765 -51.76471 166 128 193
25.88235 -14.11765 -50.58824 167 136 186
27.05882 -14.11765 -50.58824 163 132 182
24.70588 -22.35294 -42.35294 128 82 138
23.52941 -22.35294 -40.00000 160 127 179
23.52941 -21.17647 -40.00000 133 112 143
24.70588 -22.35294 -41.17647 109 101 118
24.70588 -22.35294 -40.00000 137 110 151
24.70588 -21.17647 -41.17647 145 118 160
24.70588 -21.17647 -40.00000 141 108 160
23.52941 -20.00000 -40.00000 116 102 126
23.52941 -18.82353 -40.00000 104 91 117
24.70588 -20.00000 -41.17647 116 99 131
24.70588 -20.00000 -40.00000 130 109 144
24.70588 -18.82353 -41.17647 91 71 109
24.70588 -18.82353 -40.00000 122 104 138
25.88235 -22.35294 -42.35294 137 106 152
25.88235 -21.17647 -42.35294 142 108 157
27.05882 -22.35294 -43.52941 133 111 149
27.05882 -22.35294 -42.35294 133 108 147
27.05882 -21.17647 -43.52941 119 103 129
27.05882 -21.17647 -42.35294 103 89 112
25.88235 -21.17647 -41.17647 148 117 165
25.88235 -20.00000 -42.35294 125 105 141
25.88235 -18.82353 -42.35294 102 85 118
27.05882 -20.00000 -42.35294 91 86 101
27.05882 -18.82353 -42.35294 88 71 103
25.88235 -20.00000 -41.17647 123 102 137
25.88235 -18.82353 -41.17647 95 81 112
24.70588 -17.64706 -41.17647 95 67 113
24.70588 -17.64706 -40.00000 116 95 130
24.70588 -16.47059 -40.00000 115 103 124
25.88235 -17.64706 -42.35294 99 82 114
27.05882 -17.64706 -42.35294 88 81 101
27.05882 -16.47059 -42.35294 85 82 99
25.88235 -17.64706 -41.17647 96 79 111
25.88235 -17.64706 -40.00000 104 79 118
25.88235 -16.47059 -41.17647 100 90 117
25.88235 -16.47059 -40.00000 117 99 129
27.05882 -17.64706 -41.17647 83 82 97
27.05882 -16.47059 -41.17647 85 78 98
27.05882 -16.47059 -40.00000 116 121 128
25.88235 -15.29412 -40.00000 120 111 131
25.88235 -14.11765 -40.00000 113 104 126
27.05882 -15.29412 -41.17647 88 81 99
27.05882 -15.29412 -40.00000 93 86 104
27.05882 -14.11765 -41.17647 78 74 88
27.05882 -14.11765 -40.00000 93 86 104
28.23529 -50.58824 -76.47059 142 116 161
28.23529 -49.41176 -76.47059 146 115 165
29.41176 -50.58824 -76.47059 152 123 167
29.41176 -49.41176 -76.47059 151 124 166
28.23529 -48.23529 -76.47059 166 132 183
28.23529 -47.05882 -76.47059 178 146 193
29.41176 -48.23529 -76.47059 148 108 168
29.41176 -47.05882 -76.47059 173 135 191
30.58824 -50.58824 -76.47059 123 99 139
30.58824 -49.41176 -76.47059 132 103 146
31.76471 -50.58824 -76.47059 164 137 179
31.76471 -49.41176 -76.47059 134 110 143
30.58824 -48.23529 -76.47059 152 123 166
30.58824 -47.05882 -76.47059 148 119 163
31.76471 -48.23529 -76.47059 131 107 147
31.76471 -48.23529 -75.29412 154 129 168
31.76471 -47.05882 -76.47059 141 110 156
31.76471 -47.05882 -75.29412 153 126 168
28.23529 -45.88235 -76.47059 168 134 183
28.23529 -44.70588 -76.47059 147 118 161
29.41176 -45.88235 -76.47059 177 143 194
29.41176 -44.70588 -76.47059 157 125 174
28.23529 -43.52941 -76.47059 151 119 166
28.23529 -42.35294 -76.47059 141 112 155
29.41176 -43.52941 -76.47059 139 114 153
29.41176 -42.35294 -76.47059 129 102 144
29.41176 -42.35294 -75.29412 127 106 141
30.58824 -45.88235 -76.47059 141 114 155
30.58824 -44.70588 -76.47059 142 115 157
30.58824 -44.70588 -75.29412 155 127 173
31.76471 -45.88235 -76.47059 144 117 159
31.76471 -45.88235 -75.29412 160 128 177
31.76471 -44.70588 -75.29412 166 129 180
31.76471 -44.70588 -74.11765 176 144 191
30.58824 -43.52941 -76.47059 134 109 148
30.58824 -43.52941 -75.29412 155 126 170
30.58824 -42.35294 -75.29412 151 119 166
31.76471 -43.52941 -75.29412 170 136 187
30.58824 -43.52941 -74.11765 163 132 178
30.58824 -42.35294 -74.11765 157 125 172
31.76471 -43.52941 -74.11765 160 128 175
31.76471 -42.35294 -74.11765 157 126 172
31.76471 -42.35294 -72.94118 161 127 178
32.94118 -50.58824 -76.47059 167 139 178
32.94118 -50.58824 -75.29412 172 148 181
32.94118 -49.41176 -76.47059 146 118 155
32.94118 -49.41176 -75.29412 158 133 172
34.11765 -50.58824 -75.29412 173 149 189
34.11765 -49.41176 -75.29412 159 134 171
34.11765 -50.58824 -74.11765 165 140 177
34.11765 -49.41176 -74.11765 149 122 163
32.94118 -48.23529 -75.29412 165 136 180
32.94118 -47.05882 -75.29412 169 140 183
34.11765 -48.23529 -75.29412 154 129 168
34.11765 -47.05882 -75.29412 157 120 171
32.94118 -47.05882 -74.11765 148 133 154
34.11765 -48.23529 -74.11765 149 124 163
34.11765 -47.05882 -74.11765 156 125 170
35.29412 -50.58824 -75.29412 162 137 174
35.29412 -50.58824 -74.11765 157 134 171
35.29412 -49.41176 -74.11765 151 128 165
35.29412 -49.41176 -72.94118 144 126 156
36.47059 -50.58824 -74.11765 154 130 170
36.47059 -50.58824 -72.94118 160 135 174
36.47059 -49.41176 -72.94118 168 144 184
35.29412 -48.23529 -74.11765 144 117 158
35.29412 -48.23529 -72.94118 148 121 162
35.29412 -47.05882 -74.11765 159 131 177
35.29412 -47.05882 -72.94118 155 123 170
36.47059 -48.23529 -72.94118 157 134 171
36.47059 -47.05882 -72.94118 141 110 156
36.47059 -50.58824 -71.76471 169 140 183
36.47059 -49.41176 -71.76471 173 141 188
36.47059 -48.23529 -71.76471 169 137 186
36.47059 -48.23529 -70.58824 168 134 185
36.47059 -47.05882 -71.76471 165 134 180
36.47059 -47.05882 -70.58824 184 150 199
32.94118 -45.88235 -75.29412 158 127 173
32.94118 -44.70588 -75.29412 170 139 187
32.94118 -45.88235 -74.11765 163 129 180
32.94118 -44.70588 -74.11765 167 135 184
34.11765 -45.88235 -74.11765 171 139 188
34.11765 -45.88235 -72.94118 169 136 188
34.11765 -44.70588 -74.11765 167 135 184
34.11765 -44.70588 -72.94118 164 132 181
32.94118 -43.52941 -74.11765 158 126 175
32.94118 -43.52941 -72.94118 147 115 164
32.94118 -42.35294 -72.94118 157 126 172
34.11765 -43.52941 -74.11765 160 128 177
34.11765 -43.52941 -72.94118 159 127 176
34.11765 -42.35294 -72.94118 154 121 165
35.29412 -45.88235 -72.94118 177 143 194
35.29412 -44.70588 -72.94118 166 134 183
35.29412 -43.52941 -72.94118 161 126 174
32.94118 -42.35294 -71.76471 164 130 181
34.11765 -43.52941 -71.76471 152 130 168
34.11765 -42.35294 -71.76471 162 133 176
35.29412 -45.88235 -71.76471 171 138 184
35.29412 -44.70588 -71.76471 155 124 170
36.47059 -45.88235 -71.76471 164 137 179
36.47059 -45.88235 -70.58824 173 139 188
36.47059 -44.70588 -71.76471 162 130 179
36.47059 -44.70588 -70.58824 164 130 181
35.29412 -43.52941 -71.76471 162 131 179
35.29412 -43.52941 -70.58824 170 139 185
35.29412 -42.35294 -71.76471 170 144 189
35.29412 -42.35294 -70.58824 162 133 177
36.47059 -43.52941 -71.76471 161 133 179
36.47059 -43.52941 -70.58824 165 133 182
36.47059 -42.35294 -70.58824 151 120 166
36.47059 -43.52941 -69.41176 162 129 181
36.47059 -42.35294 -69.41176 148 119 162
28.23529 -41.17647 -76.47059 131 104 145
28.23529 -41.17647 -75.29412 128 106 144
28.23529 -40.00000 -76.47059 123 90 144
28.23529 -40.00000 -75.29412 150 121 165
29.41176 -41.17647 -76.47059 103 83 119
29.41176 -41.17647 -75.29412 133 104 148
29.41176 -40.00000 -75.29412 154 122 169
29.41176 -40.00000 -74.11765 152 118 169
28.23529 -38.82353 -75.29412 169 137 186
28.23529 -37.64706 -75.29412 153 125 171
29.41176 -38.82353 -75.29412 166 130 183
28.23529 -38.82353 -74.11765 142 113 156
28.23529 -37.64706 -74.11765 150 122 168
29.41176 -38.82353 -74.11765 163 131 178
29.41176 -37.64706 -74.11765 164 135 179
29.41176 -37.64706 -72.94118 166 132 181
30.58824 -41.17647 -75.29412 153 122 170
30.58824 -40.00000 -75.29412 138 119 150
30.58824 -41.17647 -74.11765 163 135 181
30.58824 -41.17647 -72.94118 172 140 189
30.58824 -40.00000 -74.11765 154 125 168
30.58824 -40.00000 -72.94118 169 136 182
31.76471 -41.17647 -74.11765 164 129 175
31.76471 -41.17647 -72.94118 155 125 166
31.76471 -40.00000 -72.94118 154 125 169
30.58824 -38.82353 -74.11765 166 134 183
30.58824 -38.82353 -72.94118 175 143 192
30.58824 -37.64706 -74.11765 153 124 158
30.58824 -37.64706 -72.94118 176 145 193
31.76471 -40.00000 -71.76471 145 118 159
30.58824 -38.82353 -71.76471 172 135 186
30.58824 -37.64706 -71.76471 168 134 185
31.76471 -38.82353 -71.76471 174 147 189
31.76471 -38.82353 -70.58824 169 145 187
31.76471 -37.64706 -71.76471 166 134 181
31.76471 -37.64706 -70.58824 152 123 166
28.23529 -36.47059 -74.11765 166 134 181
28.23529 -36.47059 -72.94118 166 132 183
28.23529 -35.29412 -72.94118 171 147 189
29.41176 -36.47059 -74.11765 141 111 152
29.41176 -36.47059 -72.94118 147 118 162
30.58824 -36.47059 -72.94118 176 137 190
28.23529 -36.47059 -71.76471 157 130 171
28.23529 -35.29412 -71.76471 167 136 184
29.41176 -36.47059 -71.76471 149 123 167
29.41176 -35.29412 -71.76471 165 133 182
29.41176 -35.29412 -70.58824 168 135 187
28.23529 -34.11765 -71.76471 161 134 176
28.23529 -34.11765 -70.58824 161 123 179
28.23529 -32.94118 -70.58824 163 130 182
29.41176 -34.11765 -70.58824 163 136 177
29.41176 -32.94118 -70.58824 166 133 185
29.41176 -32.94118 -69.41176 167 134 186
30.58824 -36.47059 -71.76471 161 130 176
30.58824 -36.47059 -70.58824 160 128 177
30.58824 -35.29412 -70.58824 170 138 187
31.76471 -36.47059 -70.58824 151 120 166
31.76471 -35.29412 -70.58824 153 124 167
30.58824 -35.29412 -69.41176 165 133 182
31.76471 -36.47059 -69.41176 161 132 176
31.76471 -35.29412 -69.41176 158 131 173
31.76471 -35.29412 -68.23529 161 132 176
30.58824 -34.11765 -70.58824 164 132 179
30.58824 -32.94118 -70.58824 192 156 210
30.58824 -34.11765 -69.41176 166 133 179
30.58824 -34.11765 -68.23529 184 156 202
30.58824 -32.94118 -69.41176 169 133 187
30.58824 -32.94118 -68.23529 174 138 191
31.76471 -34.11765 -69.41176 174 141 193
31.76471 -34.11765 -68.23529 165 133 182
31.76471 -32.94118 -68.23529 174 138 191
32.94118 -41.17647 -72.94118 152 125 167
32.94118 -41.17647 -71.76471 150 127 164
32.94118 -40.00000 -71.76471 166 137 181
32.94118 -40.00000 -70.58824 156 122 171
34.11765 -41.17647 -71.76471 152 121 167
34.11765 -41.17647 -70.58824 158 127 173
34.11765 -40.00000 -71.76471 161 148 174
34.11765 -40.00000 -70.58824 152 127 164
32.94118 -38.82353 -71.76471 166 138 185
32.94118 -38.82353 -70.58824 168 136 183
32.94118 -37.64706 -70.58824 151 120 166
34.11765 -38.82353 -70.58824 146 121 158
34.11765 -37.64706 -70.58824 154 125 169
34.11765 -38.82353 -69.41176 138 120 150
34.11765 -37.64706 -69.41176 152 127 166
35.29412 -41.17647 -70.58824 170 138 187
35.29412 -40.00000 -70.58824 154 125 168
36.47059 -41.17647 -70.58824 166 134 181
36.47059 -40.00000 -70.58824 184 157 198
35.29412 -40.00000 -69.41176 139 108 154
36.47059 -41.17647 -69.41176 170 139 185
36.47059 -41.17647 -68.23529 158 130 169
36.47059 -40.00000 -69.41176 162 133 177
36.47059 -40.00000 -68.23529 145 118 160
35.29412 -38.82353 -70.58824 152 128 168
35.29412 -38.82353 -69.41176 158 134 174
35.29412 -37.64706 -69.41176 161 139 177
35.29412 -37.64706 -68.23529 168 134 183
36.47059 -38.82353 -69.41176 162 137 174
36.47059 -38.82353 -68.23529 161 129 176
36.47059 -37.64706 -68.23529 161 130 175
32.94118 -36.47059 -70.58824 152 120 167
34.11765 -36.47059 -70.58824 131 120 146
32.94118 -36.47059 -69.41176 155 127 173
32.94118 -36.47059 -68.23529 151 120 168
32.94118 -35.29412 -69.41176 159 128 174
32.94118 -35.29412 -68.23529 157 123 174
34.11765 -36.47059 -69.41176 154 125 169
34.11765 -36.47059 -68.23529 152 124 170
34.11765 -35.29412 -68.23529 144 116 155
32.94118 -34.11765 -68.23529 148 122 166
35.29412 -36.47059 -69.41176 151 124 165
35.29412 -36.47059 -68.23529 161 124 175
36.47059 -36.47059 -68.23529 167 140 181
30.58824 -32.94118 -67.05882 164 130 181
31.76471 -34.11765 -67.05882 162 136 180
31.76471 -32.94118 -67.05882 165 131 182
36.47059 -40.00000 -67.05882 146 127 158
36.47059 -38.82353 -67.05882 164 131 177
36.47059 -37.64706 -67.05882 165 136 180
36.47059 -37.64706 -65.88235 146 119 160
32.94118 -35.29412 -67.05882 171 135 188
34.11765 -36.47059 -67.05882 154 131 176
34.11765 -35.29412 -67.05882 158 125 177
34.11765 -35.29412 -65.88235 131 120 146
32.94118 -34.11765 -67.05882 159 127 176
32.94118 -32.94118 -67.05882 160 132 178
32.94118 -32.94118 -65.88235 160 133 175
34.11765 -34.11765 -67.05882 151 121 162
34.11765 -34.11765 -65.88235 154 123 169
34.11765 -32.94118 -65.88235 146 123 158
34.11765 -32.94118 -64.70588 158 134 174
35.29412 -36.47059 -67.05882 172 141 189
35.29412 -36.47059 -65.88235 178 145 199
35.29412 -35.29412 -67.05882 171 140 190
35.29412 -35.29412 -65.88235 155 128 170
36.47059 -36.47059 -67.05882 174 140 191
36.47059 -36.47059 -65.88235 160 129 175
36.47059 -35.29412 -65.88235 167 137 178
35.29412 -35.29412 -64.70588 144 126 156
36.47059 -36.47059 -64.70588 147 120 162
36.47059 -36.47059 -63.52941 153 126 167
36.47059 -35.29412 -64.70588 151 122 165
36.47059 -35.29412 -63.52941 161 130 176
35.29412 -34.11765 -65.88235 152 130 170
35.29412 -34.11765 -64.70588 159 132 174
35.29412 -34.11765 -63.52941 148 131 163
35.29412 -32.94118 -64.70588 168 137 183
35.29412 -32.94118 -63.52941 171 140 186
36.47059 -34.11765 -64.70588 133 114 145
36.47059 -34.11765 -63.52941 157 134 171
36.47059 -32.94118 -63.52941 185 153 200
36.47059 -34.11765 -62.35294 163 125 171
36.47059 -32.94118 -62.35294 185 154 200
36.47059 -32.94118 -61.17647 205 168 219
37.64706 -50.58824 -71.76471 160 133 174
37.64706 -50.58824 -70.58824 161 132 175
37.64706 -49.41176 -71.76471 157 122 170
37.64706 -49.41176 -70.58824 156 127 170
38.82353 -50.58824 -70.58824 165 134 180
38.82353 -49.41176 -70.58824 163 131 178
38.82353 -50.58824 -69.41176 171 140 186
38.82353 -49.41176 -69.41176 171 144 186
37.64706 -48.23529 -70.58824 160 129 175
37.64706 -47.05882 -70.58824 164 133 179
38.82353 -48.23529 -70.58824 164 136 175
38.82353 -47.05882 -70.58824 153 126 167
38.82353 -48.23529 -69.41176 149 119 160
38.82353 -47.05882 -69.41176 158 127 172
40.00000 -50.58824 -70.58824 169 136 180
40.00000 -50.58824 -69.41176 174 142 189
40.00000 -50.58824 -68.23529 185 148 199
40.00000 -49.41176 -69.41176 174 138 191
40.00000 -49.41176 -68.23529 174 139 187
41.17647 -50.58824 -69.41176 192 165 207
41.17647 -50.58824 -68.23529 183 147 200
41.17647 -49.41176 -68.23529 168 130 185
40.00000 -48.23529 -69.41176 171 135 188
40.00000 -48.23529 -68.23529 168 136 185
40.00000 -47.05882 -69.41176 159 125 174
40.00000 -47.05882 -68.23529 174 140 191
41.17647 -48.23529 -68.23529 175 143 190
41.17647 -47.05882 -68.23529 188 150 205
37.64706 -45.88235 -70.58824 163 132 178
37.64706 -44.70588 -70.58824 167 135 184
38.82353 -45.88235 -70.58824 173 146 188
37.64706 -45.88235 -69.41176 164 137 178
37.64706 -44.70588 -69.41176 167 133 184
38.82353 -45.88235 -69.41176 171 142 186
38.82353 -45.88235 -68.23529 185 167 200
38.82353 -44.70588 -69.41176 169 137 184
38.82353 -44.70588 -68.23529 182 150 199
37.64706 -43.52941 -70.58824 177 144 196
37.64706 -43.52941 -69.41176 168 137 182
37.64706 -43.52941 -68.23529 162 135 176
37.64706 -42.35294 -69.41176 152 131 162
37.64706 -42.35294 -68.23529 179 154 193
38.82353 -43.52941 -69.41176 162 134 173
38.82353 -43.52941 -68.23529 171 137 186
38.82353 -42.35294 -68.23529 181 144 195
40.00000 -45.88235 -68.23529 187 149 204
40.00000 -44.70588 -68.23529 189 149 206
40.00000 -43.52941 -68.23529 191 153 208
41.17647 -50.58824 -67.05882 178 144 193
41.17647 -49.41176 -67.05882 180 144 197
41.17647 -48.23529 -67.05882 181 147 198
41.17647 -47.05882 -67.05882 182 146 199
41.17647 -47.05882 -65.88235 180 149 197
38.82353 -43.52941 -67.05882 181 149 196
38.82353 -42.35294 -67.05882 190 158 207
38.82353 -42.35294 -65.88235 178 140 196
40.00000 -45.88235 -67.05882 177 139 195
40.00000 -44.70588 -67.05882 198 160 215
41.17647 -45.88235 -67.05882 182 148 199
41.17647 -45.88235 -65.88235 180 144 197
41.17647 -44.70588 -67.05882 177 137 194
41.17647 -44.70588 -65.88235 171 137 188
41.17647 -44.70588 -64.70588 171 139 188
40.00000 -43.52941 -67.05882 186 150 203
40.00000 -43.52941 -65.88235 190 152 207
40.00000 -42.35294 -67.05882 184 150 199
40.00000 -42.35294 -65.88235 197 160 211
41.17647 -43.52941 -67.05882 192 149 208
41.17647 -43.52941 -65.88235 204 170 221
40.00000 -42.35294 -64.70588 185 153 202
41.17647 -43.52941 -64.70588 178 146 193
41.17647 -43.52941 -63.52941 153 125 171
41.17647 -42.35294 -64.70588 156 125 171
41.17647 -42.35294 -63.52941 165 134 179
42.35294 -50.58824 -67.05882 192 158 209
42.35294 -50.58824 -65.88235 183 149 200
42.35294 -49.41176 -67.05882 194 162 211
42.35294 -49.41176 -65.88235 194 163 211
43.52941 -50.58824 -65.88235 158 124 175
42.35294 -49.41176 -64.70588 172 136 189
43.52941 -50.58824 -64.70588 148 124 166
43.52941 -50.58824 -63.52941 146 124 164
43.52941 -49.41176 -64.70588 162 133 177
43.52941 -49.41176 -63.52941 136 116 152
42.35294 -48.23529 -67.05882 186 146 204
42.35294 -48.23529 -65.88235 188 154 205
42.35294 -47.05882 -65.88235 173 140 192
42.35294 -48.23529 -64.70588 171 139 186
42.35294 -47.05882 -64.70588 169 135 184
43.52941 -48.23529 -64.70588 164 132 181
43.52941 -48.23529 -63.52941 147 125 163
43.52941 -47.05882 -64.70588 163 129 180
43.52941 -47.05882 -63.52941 155 131 171
44.70588 -50.58824 -63.52941 152 138 169
43.52941 -49.41176 -62.35294 128 111 143
43.52941 -48.23529 -62.35294 130 110 146
43.52941 -47.05882 -62.35294 143 117 162
44.70588 -50.58824 -62.35294 147 130 166
44.70588 -50.58824 -61.17647 132 115 152
44.70588 -49.41176 -62.35294 137 118 157
44.70588 -49.41176 -61.17647 131 119 150
45.88235 -50.58824 -61.17647 131 105 157
44.70588 -49.41176 -60.00000 131 119 150
45.88235 -50.58824 -60.00000 132 104 160
45.88235 -50.58824 -58.82353 147 122 170
45.88235 -49.41176 -60.00000 129 113 152
45.88235 -49.41176 -58.82353 137 107 162
44.70588 -48.23529 -62.35294 127 105 145
44.70588 -48.23529 -61.17647 142 124 158
44.70588 -47.05882 -62.35294 134 109 157
44.70588 -47.05882 -61.17647 120 99 140
44.70588 -48.23529 -60.00000 136 114 154
44.70588 -47.05882 -60.00000 120 98 138
45.88235 -48.23529 -60.00000 132 116 152
45.88235 -48.23529 -58.82353 131 106 153
45.88235 -47.05882 -60.00000 124 110 141
45.88235 -47.05882 -58.82353 127 110 147
42.35294 -45.88235 -65.88235 188 150 206
42.35294 -44.70588 -65.88235 168 132 185
42.35294 -45.88235 -64.70588 175 143 190
42.35294 -45.88235 -63.52941 164 133 181
42.35294 -44.70588 -64.70588 174 142 189
42.35294 -44.70588 -63.52941 163 137 172
43.52941 -45.88235 -63.52941 167 135 184
43.52941 -44.70588 -63.52941 195 159 212
42.35294 -43.52941 -64.70588 172 143 186
42.35294 -43.52941 -63.52941 191 157 208
42.35294 -42.35294 -63.52941 184 156 202
43.52941 -43.52941 -63.52941 157 128 172
43.52941 -45.88235 -62.35294 144 122 160
43.52941 -45.88235 -61.17647 135 104 154
43.52941 -44.70588 -62.35294 174 143 193
43.52941 -44.70588 -61.17647 156 115 180
42.35294 -42.35294 -62.35294 181 169 198
43.52941 -43.52941 -62.35294 135 111 151
43.52941 -43.52941 -61.17647 167 127 187
43.52941 -42.35294 -62.35294 161 129 178
43.52941 -42.35294 -61.17647 141 107 158
43.52941 -43.52941 -60.00000 168 137 187
43.52941 -43.52941 -58.82353 159 142 175
43.52941 -42.35294 -60.00000 157 126 174
43.52941 -42.35294 -58.82353 178 141 200
44.70588 -45.88235 -61.17647 133 108 155
44.70588 -44.70588 -61.17647 124 109 147
44.70588 -45.88235 -60.00000 121 100 141
44.70588 -45.88235 -58.82353 124 104 142
44.70588 -44.70588 -60.00000 125 102 145
44.70588 -44.70588 -58.82353 115 94 135
45.88235 -45.88235 -58.82353 111 91 129
45.88235 -44.70588 -58.82353 101 80 115
44.70588 -43.52941 -60.00000 165 135 184
44.70588 -43.52941 -58.82353 158 127 177
44.70588 -42.35294 -58.82353 185 152 206
37.64706 -41.17647 -68.23529 173 141 188
37.64706 -40.00000 -68.23529 162 131 177
37.64706 -41.17647 -67.05882 168 138 179
37.64706 -40.00000 -67.05882 155 126 169
37.64706 -40.00000 -65.88235 158 139 170
38.82353 -41.17647 -67.05882 184 152 199
38.82353 -41.17647 -65.88235 185 153 200
38.82353 -40.00000 -67.05882 158 129 173
38.82353 -40.00000 -65.88235 173 148 187
38.82353 -40.00000 -64.70588 174 143 189
37.64706 -38.82353 -67.05882 165 134 180
37.64706 -38.82353 -65.88235 159 131 170
37.64706 -37.64706 -65.88235 149 122 163
38.82353 -38.82353 -65.88235 182 146 199
37.64706 -38.82353 -64.70588 178 142 196
37.64706 -37.64706 -64.70588 169 138 186
38.82353 -38.82353 -64.70588 169 138 186
38.82353 -38.82353 -63.52941 184 152 199
38.82353 -37.64706 -64.70588 178 142 195
38.82353 -37.64706 -63.52941 182 148 199
40.00000 -41.17647 -65.88235 195 158 216
40.00000 -41.17647 -64.70588 194 158 211
40.00000 -41.17647 -63.52941 194 156 212
40.00000 -40.00000 -64.70588 180 144 197
40.00000 -40.00000 -63.52941 177 141 194
41.17647 -41.17647 -64.70588 195 159 212
41.17647 -41.17647 -63.52941 194 158 212
41.17647 -40.00000 -63.52941 193 156 214
40.00000 -38.82353 -64.70588 189 158 204
40.00000 -38.82353 -63.52941 182 151 201
40.00000 -37.64706 -63.52941 186 150 204
41.17647 -38.82353 -63.52941 178 141 192
41.17647 -37.64706 -63.52941 188 158 207
41.17647 -40.00000 -62.35294 177 146 196
40.00000 -37.64706 -62.35294 178 148 197
41.17647 -38.82353 -62.35294 169 131 187
41.17647 -38.82353 -61.17647 171 135 188
41.17647 -37.64706 -62.35294 175 146 190
41.17647 -37.64706 -61.17647 171 131 191
41.17647 -37.64706 -60.00000 133 107 152
37.64706 -36.47059 -65.88235 155 131 173
37.64706 -36.47059 -64.70588 164 133 179
37.64706 -36.47059 -63.52941 179 147 194
37.64706 -35.29412 -63.52941 183 150 196
38.82353 -36.47059 -63.52941 183 145 200
37.64706 -34.11765 -63.52941 162 139 174
40.00000 -36.47059 -63.52941 162 125 183
37.64706 -35.29412 -62.35294 198 160 215
37.64706 -35.29412 -61.17647 190 153 204
38.82353 -36.47059 -62.35294 177 141 194
38.82353 -36.47059 -61.17647 191 146 211
38.82353 -35.29412 -62.35294 173 130 187
38.82353 -35.29412 -61.17647 193 153 210
38.82353 -35.29412 -60.00000 199 162 213
37.64706 -34.11765 -62.35294 185 153 200
37.64706 -34.11765 -61.17647 187 148 201
37.64706 -32.94118 -62.35294 211 177 226
37.64706 -32.94118 -61.17647 187 150 201
38.82353 -34.11765 -61.17647 200 157 214
37.64706 -32.94118 -60.00000 189 151 206
