ply
format ascii 1.0
element vertex 1181
property float x
property float y
property float z
property uchar green
property uchar blue
property uchar red
element face 0
property list uint8 int32 vertex_index
end_header
24.00000 -30.00000 -72.00000 169 132 190
20.00000 -30.00000 -70.00000 164 129 185
20.00000 -28.00000 -70.00000 154 134 178
22.00000 -30.00000 -70.00000 159 129 180
22.00000 -28.00000 -70.00000 171 142 199
20.00000 -26.00000 -70.00000 168 136 195
22.00000 -26.00000 -70.00000 159 133 185
22.00000 -24.00000 -70.00000 142 119 165
24.00000 -30.00000 -70.00000 170 133 191
24.00000 -30.00000 -68.00000 178 143 200
24.00000 -28.00000 -70.00000 173 136 195
24.00000 -28.00000 -68.00000 163 136 185
26.00000 -30.00000 -70.00000 186 146 206
26.00000 -30.00000 -68.00000 177 145 202
26.00000 -28.00000 -68.00000 171 136 192
24.00000 -28.00000 -66.00000 145 129 168
26.00000 -30.00000 -66.00000 177 135 195
26.00000 -28.00000 -66.00000 162 136 180
26.00000 -28.00000 -64.00000 165 132 184
24.00000 -26.00000 -70.00000 160 137 182
24.00000 -26.00000 -68.00000 162 136 188
24.00000 -24.00000 -70.00000 156 121 185
24.00000 -24.00000 -68.00000 162 136 188
24.00000 -26.00000 -66.00000 178 149 207
24.00000 -24.00000 -66.00000 174 145 203
26.00000 -26.00000 -66.00000 165 139 191
26.00000 -26.00000 -64.00000 174 145 199
26.00000 -24.00000 -66.00000 185 157 214
26.00000 -24.00000 -64.00000 178 150 206
20.00000 -22.00000 -72.00000 171 127 195
20.00000 -20.00000 -72.00000 144 115 159
22.00000 -22.00000 -72.00000 143 113 164
22.00000 -20.00000 -72.00000 146 111 168
20.00000 -18.00000 -72.00000 143 116 158
20.00000 -16.00000 -72.00000 160 125 181
22.00000 -18.00000 -72.00000 137 109 148
22.00000 -16.00000 -72.00000 163 120 185
22.00000 -22.00000 -70.00000 151 120 172
22.00000 -20.00000 -70.00000 153 122 168
22.00000 -20.00000 -68.00000 171 133 188
22.00000 -18.00000 -70.00000 165 136 180
22.00000 -18.00000 -68.00000 158 130 176
22.00000 -16.00000 -70.00000 175 139 193
22.00000 -16.00000 -68.00000 162 130 179
20.00000 -16.00000 -64.00000 121 108 136
22.00000 -16.00000 -66.00000 144 118 162
22.00000 -16.00000 -64.00000 139 117 155
24.00000 -22.00000 -70.00000 163 128 195
24.00000 -22.00000 -68.00000 158 128 183
24.00000 -20.00000 -70.00000 161 136 175
24.00000 -20.00000 -68.00000 165 135 184
24.00000 -22.00000 -66.00000 164 136 192
24.00000 -22.00000 -64.00000 176 147 205
24.00000 -20.00000 -66.00000 155 127 174
24.00000 -20.00000 -64.00000 175 155 201
26.00000 -22.00000 -66.00000 161 133 189
26.00000 -22.00000 -64.00000 162 134 190
26.00000 -20.00000 -64.00000 182 154 211
24.00000 -18.00000 -68.00000 146 124 164
24.00000 -16.00000 -68.00000 147 114 166
24.00000 -18.00000 -66.00000 157 126 172
24.00000 -18.00000 -64.00000 162 125 176
24.00000 -16.00000 -66.00000 129 111 145
24.00000 -16.00000 -64.00000 149 123 167
26.00000 -18.00000 -64.00000 175 146 190
28.00000 -30.00000 -70.00000 177 130 198
28.00000 -30.00000 -68.00000 173 138 195
30.00000 -30.00000 -68.00000 172 142 191
28.00000 -30.00000 -66.00000 169 134 191
28.00000 -28.00000 -66.00000 174 140 199
28.00000 -28.00000 -64.00000 176 141 198
30.00000 -30.00000 -66.00000 176 146 195
30.00000 -30.00000 -64.00000 169 143 187
30.00000 -28.00000 -64.00000 180 150 199
28.00000 -26.00000 -64.00000 184 141 206
32.00000 -30.00000 -66.00000 173 146 188
32.00000 -30.00000 -64.00000 175 151 191
32.00000 -28.00000 -64.00000 183 152 202
34.00000 -30.00000 -64.00000 172 143 186
26.00000 -26.00000 -62.00000 173 144 201
26.00000 -26.00000 -60.00000 197 162 226
26.00000 -24.00000 -62.00000 166 137 194
26.00000 -24.00000 -60.00000 181 152 209
20.00000 -18.00000 -60.00000 111 93 127
20.00000 -16.00000 -62.00000 111 100 126
20.00000 -16.00000 -60.00000 118 98 136
22.00000 -18.00000 -62.00000 105 84 125
22.00000 -18.00000 -60.00000 116 99 135
22.00000 -16.00000 -62.00000 113 95 129
22.00000 -16.00000 -60.00000 100 79 120
20.00000 -18.00000 -58.00000 121 104 137
20.00000 -18.00000 -56.00000 136 117 148
22.00000 -18.00000 -58.00000 117 99 133
22.00000 -18.00000 -56.00000 155 134 167
26.00000 -22.00000 -62.00000 161 131 186
26.00000 -22.00000 -60.00000 169 141 197
26.00000 -20.00000 -62.00000 168 133 190
26.00000 -20.00000 -60.00000 151 122 176
24.00000 -18.00000 -62.00000 160 126 177
24.00000 -18.00000 -60.00000 123 93 148
24.00000 -16.00000 -62.00000 137 107 156
26.00000 -18.00000 -62.00000 182 148 197
26.00000 -18.00000 -60.00000 143 113 164
24.00000 -18.00000 -58.00000 114 91 136
24.00000 -18.00000 -56.00000 147 117 166
26.00000 -18.00000 -58.00000 153 117 178
26.00000 -18.00000 -56.00000 159 120 183
20.00000 -18.00000 -54.00000 133 116 148
20.00000 -16.00000 -54.00000 148 125 160
20.00000 -16.00000 -52.00000 156 132 172
22.00000 -18.00000 -54.00000 162 133 177
22.00000 -16.00000 -54.00000 171 144 186
22.00000 -16.00000 -52.00000 147 127 163
24.00000 -18.00000 -54.00000 158 134 174
24.00000 -16.00000 -54.00000 165 136 180
24.00000 -16.00000 -52.00000 141 121 159
26.00000 -18.00000 -54.00000 175 136 199
26.00000 -16.00000 -54.00000 175 138 197
26.00000 -16.00000 -52.00000 170 139 187
28.00000 -28.00000 -62.00000 141 111 162
30.00000 -28.00000 -62.00000 174 138 192
30.00000 -28.00000 -60.00000 163 124 185
28.00000 -26.00000 -62.00000 165 134 186
28.00000 -26.00000 -60.00000 165 137 193
28.00000 -24.00000 -60.00000 186 148 214
30.00000 -26.00000 -62.00000 164 131 185
30.00000 -26.00000 -60.00000 172 140 197
28.00000 -26.00000 -58.00000 188 148 216
28.00000 -24.00000 -58.00000 186 153 215
28.00000 -24.00000 -56.00000 171 139 196
30.00000 -26.00000 -58.00000 175 139 200
30.00000 -26.00000 -56.00000 162 131 181
30.00000 -24.00000 -58.00000 181 143 208
30.00000 -24.00000 -56.00000 164 126 191
32.00000 -30.00000 -62.00000 179 150 194
32.00000 -28.00000 -62.00000 177 149 195
32.00000 -28.00000 -60.00000 187 156 206
34.00000 -30.00000 -62.00000 181 149 196
34.00000 -30.00000 -60.00000 188 154 203
34.00000 -28.00000 -62.00000 184 147 197
34.00000 -28.00000 -60.00000 180 143 194
32.00000 -28.00000 -58.00000 202 161 224
34.00000 -28.00000 -58.00000 184 150 199
34.00000 -28.00000 -56.00000 166 135 183
32.00000 -26.00000 -60.00000 180 145 201
32.00000 -26.00000 -58.00000 190 150 210
32.00000 -26.00000 -56.00000 171 136 193
32.00000 -24.00000 -56.00000 161 127 186
34.00000 -26.00000 -58.00000 204 168 221
34.00000 -26.00000 -56.00000 188 152 206
30.00000 -28.00000 -48.00000 133 111 151
28.00000 -24.00000 -54.00000 170 136 197
30.00000 -24.00000 -54.00000 165 129 192
30.00000 -24.00000 -52.00000 170 126 196
28.00000 -26.00000 -48.00000 123 106 142
28.00000 -24.00000 -48.00000 130 105 153
30.00000 -26.00000 -48.00000 136 105 157
30.00000 -24.00000 -50.00000 171 133 198
30.00000 -24.00000 -48.00000 129 104 151
32.00000 -28.00000 -48.00000 130 108 146
34.00000 -30.00000 -48.00000 144 116 162
34.00000 -28.00000 -48.00000 142 118 160
32.00000 -26.00000 -54.00000 170 140 189
32.00000 -26.00000 -52.00000 158 129 181
32.00000 -24.00000 -54.00000 158 128 181
32.00000 -24.00000 -52.00000 172 136 197
34.00000 -26.00000 -54.00000 161 133 179
34.00000 -26.00000 -52.00000 168 131 189
32.00000 -26.00000 -50.00000 178 143 209
32.00000 -26.00000 -48.00000 158 129 181
32.00000 -24.00000 -50.00000 182 140 209
32.00000 -24.00000 -48.00000 173 137 198
34.00000 -26.00000 -50.00000 173 137 198
34.00000 -26.00000 -48.00000 156 126 179
28.00000 -22.00000 -60.00000 167 138 196
28.00000 -20.00000 -60.00000 149 122 172
28.00000 -22.00000 -58.00000 172 144 200
28.00000 -22.00000 -56.00000 166 136 191
28.00000 -20.00000 -58.00000 155 126 183
28.00000 -20.00000 -56.00000 162 133 190
28.00000 -18.00000 -58.00000 150 116 177
28.00000 -18.00000 -56.00000 150 114 175
28.00000 -22.00000 -54.00000 156 127 181
28.00000 -22.00000 -52.00000 162 133 187
28.00000 -20.00000 -54.00000 161 131 186
30.00000 -22.00000 -52.00000 170 134 197
30.00000 -20.00000 -54.00000 163 134 191
30.00000 -20.00000 -52.00000 166 136 191
30.00000 -22.00000 -50.00000 179 146 208
30.00000 -22.00000 -48.00000 161 132 186
30.00000 -20.00000 -50.00000 167 138 195
30.00000 -20.00000 -48.00000 160 131 185
28.00000 -18.00000 -54.00000 154 120 179
28.00000 -18.00000 -52.00000 154 117 176
28.00000 -16.00000 -54.00000 180 136 200
28.00000 -16.00000 -52.00000 161 126 182
30.00000 -18.00000 -54.00000 152 120 177
30.00000 -18.00000 -52.00000 160 126 185
30.00000 -16.00000 -52.00000 166 130 184
30.00000 -18.00000 -50.00000 163 126 184
30.00000 -18.00000 -48.00000 156 125 177
30.00000 -16.00000 -50.00000 154 123 173
30.00000 -16.00000 -48.00000 160 129 177
20.00000 -14.00000 -72.00000 157 125 174
20.00000 -12.00000 -72.00000 156 125 173
22.00000 -14.00000 -72.00000 163 129 180
20.00000 -10.00000 -72.00000 154 123 173
20.00000 -8.00000 -72.00000 145 114 164
20.00000 -12.00000 -70.00000 155 124 176
22.00000 -14.00000 -70.00000 166 135 185
22.00000 -14.00000 -68.00000 162 129 183
22.00000 -12.00000 -70.00000 160 127 179
22.00000 -12.00000 -68.00000 151 126 173
20.00000 -14.00000 -66.00000 117 99 132
20.00000 -14.00000 -64.00000 114 98 133
20.00000 -12.00000 -66.00000 145 127 160
20.00000 -12.00000 -64.00000 126 104 142
22.00000 -14.00000 -66.00000 123 103 139
22.00000 -14.00000 -64.00000 112 94 128
22.00000 -12.00000 -66.00000 132 109 152
20.00000 -10.00000 -70.00000 166 135 187
20.00000 -10.00000 -68.00000 146 117 169
20.00000 -8.00000 -70.00000 165 129 190
20.00000 -8.00000 -68.00000 130 101 153
22.00000 -10.00000 -70.00000 169 130 191
22.00000 -10.00000 -68.00000 136 109 158
22.00000 -8.00000 -70.00000 127 98 150
22.00000 -8.00000 -68.00000 127 106 149
20.00000 -10.00000 -66.00000 129 112 145
20.00000 -8.00000 -66.00000 99 79 117
24.00000 -14.00000 -68.00000 118 100 133
24.00000 -14.00000 -66.00000 131 108 151
20.00000 -6.00000 -72.00000 170 130 190
20.00000 -4.00000 -72.00000 143 99 169
20.00000 -6.00000 -70.00000 171 132 195
20.00000 -6.00000 -68.00000 144 117 167
20.00000 -4.00000 -70.00000 139 97 169
20.00000 -4.00000 -68.00000 159 130 187
22.00000 -6.00000 -68.00000 136 113 158
22.00000 -4.00000 -68.00000 147 118 170
20.00000 -6.00000 -66.00000 105 80 119
20.00000 -4.00000 -66.00000 126 100 144
20.00000 -4.00000 -64.00000 138 108 157
22.00000 -6.00000 -66.00000 146 110 171
22.00000 -4.00000 -66.00000 139 103 164
20.00000 -2.00000 -70.00000 155 98 194
20.00000 -2.00000 -68.00000 144 113 173
20.00000 0.00000 -70.00000 175 131 207
20.00000 0.00000 -68.00000 155 125 190
20.00000 -2.00000 -66.00000 129 115 148
20.00000 -2.00000 -64.00000 142 112 161
20.00000 0.00000 -66.00000 140 116 166
20.00000 0.00000 -64.00000 124 91 145
22.00000 -2.00000 -66.00000 137 114 159
22.00000 -2.00000 -64.00000 136 109 159
22.00000 0.00000 -66.00000 125 113 144
22.00000 0.00000 -64.00000 126 109 146
20.00000 -14.00000 -52.00000 141 124 157
22.00000 -14.00000 -52.00000 136 119 151
20.00000 -14.00000 -50.00000 130 114 149
20.00000 -12.00000 -50.00000 131 114 147
20.00000 -12.00000 -48.00000 107 97 124
22.00000 -14.00000 -50.00000 128 117 143
22.00000 -12.00000 -50.00000 132 121 145
22.00000 -12.00000 -48.00000 128 110 144
20.00000 -10.00000 -48.00000 133 111 151
20.00000 -8.00000 -48.00000 105 99 121
22.00000 -10.00000 -50.00000 165 130 187
22.00000 -10.00000 -48.00000 150 120 171
22.00000 -8.00000 -48.00000 153 131 171
24.00000 -14.00000 -52.00000 144 114 163
26.00000 -14.00000 -52.00000 162 129 181
24.00000 -14.00000 -50.00000 145 118 167
24.00000 -12.00000 -50.00000 155 129 173
26.00000 -14.00000 -50.00000 170 139 191
26.00000 -12.00000 -50.00000 167 133 184
24.00000 -10.00000 -50.00000 174 141 193
24.00000 -10.00000 -48.00000 171 140 192
24.00000 -8.00000 -48.00000 164 133 181
26.00000 -10.00000 -50.00000 185 144 209
26.00000 -8.00000 -50.00000 198 163 219
26.00000 -8.00000 -48.00000 184 147 206
20.00000 -2.00000 -62.00000 128 107 142
20.00000 0.00000 -62.00000 128 111 143
20.00000 0.00000 -60.00000 117 100 133
22.00000 0.00000 -62.00000 132 109 155
22.00000 0.00000 -60.00000 128 103 150
20.00000 0.00000 -58.00000 121 100 141
20.00000 0.00000 -56.00000 139 109 160
22.00000 0.00000 -58.00000 137 107 162
22.00000 0.00000 -56.00000 138 113 160
24.00000 0.00000 -56.00000 156 120 181
20.00000 -6.00000 -48.00000 142 122 158
20.00000 -4.00000 -50.00000 140 110 159
20.00000 -4.00000 -48.00000 136 108 155
22.00000 -6.00000 -50.00000 151 130 173
22.00000 -6.00000 -48.00000 162 136 181
22.00000 -4.00000 -50.00000 150 116 175
22.00000 -4.00000 -48.00000 146 120 164
20.00000 -2.00000 -52.00000 161 130 180
20.00000 0.00000 -54.00000 120 98 136
20.00000 0.00000 -52.00000 149 123 167
22.00000 -2.00000 -52.00000 169 132 190
22.00000 0.00000 -54.00000 128 100 156
22.00000 0.00000 -52.00000 148 112 173
20.00000 -2.00000 -50.00000 140 110 165
22.00000 -2.00000 -50.00000 147 117 168
24.00000 -6.00000 -50.00000 206 166 234
24.00000 -6.00000 -48.00000 184 148 209
24.00000 -4.00000 -50.00000 158 127 179
26.00000 -6.00000 -50.00000 190 149 212
26.00000 -4.00000 -50.00000 185 151 200
24.00000 -2.00000 -52.00000 162 127 183
24.00000 0.00000 -54.00000 144 112 169
24.00000 0.00000 -52.00000 142 110 165
26.00000 -2.00000 -52.00000 170 130 188
26.00000 0.00000 -54.00000 170 133 201
26.00000 0.00000 -52.00000 166 131 188
24.00000 -2.00000 -50.00000 145 114 162
26.00000 -2.00000 -50.00000 165 132 186
26.00000 0.00000 -50.00000 203 169 228
28.00000 -14.00000 -52.00000 169 134 190
30.00000 -14.00000 -52.00000 163 132 178
28.00000 -14.00000 -50.00000 183 141 201
28.00000 -12.00000 -50.00000 180 141 202
30.00000 -14.00000 -50.00000 178 142 195
30.00000 -14.00000 -48.00000 185 148 206
30.00000 -12.00000 -50.00000 183 138 204
30.00000 -12.00000 -48.00000 187 146 209
28.00000 -10.00000 -50.00000 180 137 204
28.00000 -8.00000 -50.00000 180 139 204
30.00000 -10.00000 -50.00000 195 154 217
30.00000 -10.00000 -48.00000 189 148 211
30.00000 -8.00000 -50.00000 219 169 245
30.00000 -8.00000 -48.00000 202 156 228
28.00000 -6.00000 -50.00000 181 137 207
28.00000 -4.00000 -50.00000 167 132 189
28.00000 -4.00000 -48.00000 193 152 217
30.00000 -6.00000 -50.00000 208 177 237
30.00000 -6.00000 -48.00000 209 163 235
30.00000 -4.00000 -48.00000 207 168 229
28.00000 -2.00000 -52.00000 134 93 156
28.00000 0.00000 -52.00000 164 129 186
28.00000 -2.00000 -50.00000 167 129 194
28.00000 -2.00000 -48.00000 202 162 229
28.00000 0.00000 -50.00000 187 150 208
28.00000 0.00000 -48.00000 181 148 202
30.00000 -2.00000 -48.00000 206 164 233
4.00000 -30.00000 -44.00000 123 112 136
6.00000 -30.00000 -44.00000 131 110 145
6.00000 -28.00000 -44.00000 118 102 138
4.00000 -30.00000 -42.00000 129 106 143
4.00000 -28.00000 -42.00000 150 120 171
6.00000 -30.00000 -42.00000 128 110 144
6.00000 -28.00000 -42.00000 144 120 162
4.00000 -26.00000 -44.00000 163 127 181
4.00000 -24.00000 -46.00000 148 117 169
4.00000 -24.00000 -44.00000 156 126 175
6.00000 -26.00000 -44.00000 158 131 180
6.00000 -24.00000 -44.00000 135 109 161
4.00000 -26.00000 -42.00000 160 130 181
6.00000 -26.00000 -42.00000 155 125 176
6.00000 -24.00000 -42.00000 141 116 163
8.00000 -30.00000 -44.00000 140 112 159
8.00000 -28.00000 -44.00000 129 109 147
10.00000 -30.00000 -44.00000 130 108 148
10.00000 -28.00000 -44.00000 113 98 126
8.00000 -30.00000 -42.00000 127 111 146
8.00000 -28.00000 -42.00000 132 111 152
10.00000 -28.00000 -42.00000 130 109 152
8.00000 -26.00000 -44.00000 142 117 165
8.00000 -24.00000 -44.00000 127 108 147
10.00000 -26.00000 -44.00000 137 114 159
8.00000 -26.00000 -42.00000 137 114 159
8.00000 -26.00000 -40.00000 130 107 153
8.00000 -24.00000 -42.00000 128 107 150
8.00000 -24.00000 -40.00000 133 108 156
10.00000 -26.00000 -42.00000 122 105 142
10.00000 -26.00000 -40.00000 124 103 146
10.00000 -24.00000 -40.00000 124 103 144
10.00000 -24.00000 -38.00000 134 103 153
4.00000 -22.00000 -46.00000 150 123 172
4.00000 -22.00000 -44.00000 154 124 175
6.00000 -22.00000 -46.00000 148 121 171
6.00000 -22.00000 -44.00000 139 114 162
6.00000 -20.00000 -46.00000 150 121 173
6.00000 -20.00000 -44.00000 147 118 170
6.00000 -22.00000 -42.00000 136 111 159
6.00000 -22.00000 -40.00000 136 111 158
6.00000 -20.00000 -42.00000 144 117 167
6.00000 -20.00000 -40.00000 137 112 159
6.00000 -18.00000 -46.00000 146 120 172
6.00000 -18.00000 -44.00000 149 122 171
6.00000 -16.00000 -46.00000 137 107 158
6.00000 -16.00000 -44.00000 146 118 165
6.00000 -18.00000 -42.00000 147 121 165
6.00000 -18.00000 -40.00000 145 112 164
6.00000 -16.00000 -42.00000 138 114 147
6.00000 -16.00000 -40.00000 144 113 161
8.00000 -22.00000 -40.00000 133 100 154
8.00000 -20.00000 -40.00000 133 109 149
10.00000 -22.00000 -40.00000 131 104 146
10.00000 -20.00000 -40.00000 123 100 137
8.00000 -18.00000 -40.00000 148 117 163
8.00000 -16.00000 -40.00000 139 112 153
10.00000 -18.00000 -40.00000 146 118 157
8.00000 -18.00000 -38.00000 145 116 160
8.00000 -16.00000 -38.00000 150 119 165
10.00000 -18.00000 -38.00000 137 112 149
10.00000 -16.00000 -38.00000 137 110 151
12.00000 -30.00000 -44.00000 125 104 145
12.00000 -28.00000 -44.00000 116 96 134
14.00000 -30.00000 -46.00000 118 101 134
14.00000 -30.00000 -44.00000 119 97 137
14.00000 -28.00000 -44.00000 112 95 131
12.00000 -28.00000 -42.00000 124 105 146
12.00000 -28.00000 -40.00000 122 101 144
14.00000 -28.00000 -42.00000 96 82 115
14.00000 -28.00000 -40.00000 107 90 123
12.00000 -26.00000 -42.00000 119 98 139
12.00000 -26.00000 -40.00000 130 110 154
16.00000 -30.00000 -46.00000 117 93 135
16.00000 -30.00000 -44.00000 118 95 138
16.00000 -28.00000 -44.00000 112 95 131
18.00000 -30.00000 -46.00000 119 95 137
18.00000 -30.00000 -44.00000 119 90 144
18.00000 -28.00000 -44.00000 104 90 123
16.00000 -30.00000 -40.00000 109 90 129
16.00000 -28.00000 -42.00000 99 89 116
16.00000 -28.00000 -40.00000 103 86 122
18.00000 -30.00000 -42.00000 97 83 116
18.00000 -30.00000 -40.00000 103 87 123
18.00000 -28.00000 -42.00000 97 83 116
18.00000 -28.00000 -40.00000 111 92 131
14.00000 -28.00000 -38.00000 116 95 130
12.00000 -26.00000 -38.00000 108 88 124
12.00000 -24.00000 -38.00000 103 88 118
14.00000 -26.00000 -38.00000 129 108 139
14.00000 -24.00000 -38.00000 85 87 95
14.00000 -24.00000 -36.00000 100 88 110
16.00000 -28.00000 -38.00000 129 101 147
18.00000 -28.00000 -38.00000 136 104 151
16.00000 -26.00000 -38.00000 149 117 164
16.00000 -24.00000 -38.00000 149 111 166
16.00000 -24.00000 -36.00000 143 114 158
18.00000 -26.00000 -38.00000 149 117 166
18.00000 -24.00000 -38.00000 156 125 170
18.00000 -24.00000 -36.00000 146 117 161
12.00000 -22.00000 -40.00000 136 105 151
12.00000 -20.00000 -40.00000 123 102 133
12.00000 -18.00000 -40.00000 158 129 173
12.00000 -22.00000 -38.00000 135 103 158
12.00000 -22.00000 -36.00000 135 107 153
12.00000 -20.00000 -38.00000 129 110 141
12.00000 -20.00000 -36.00000 141 110 162
14.00000 -22.00000 -38.00000 88 69 100
14.00000 -22.00000 -36.00000 115 97 127
14.00000 -20.00000 -38.00000 127 106 139
14.00000 -20.00000 -36.00000 148 117 167
12.00000 -18.00000 -38.00000 130 107 144
12.00000 -18.00000 -36.00000 133 116 149
12.00000 -16.00000 -38.00000 134 110 150
12.00000 -16.00000 -36.00000 131 112 141
14.00000 -18.00000 -38.00000 133 108 145
14.00000 -18.00000 -36.00000 125 107 135
14.00000 -16.00000 -36.00000 128 110 140
14.00000 -18.00000 -34.00000 134 115 144
14.00000 -16.00000 -34.00000 138 115 152
14.00000 -16.00000 -32.00000 152 127 166
16.00000 -22.00000 -36.00000 151 114 165
16.00000 -20.00000 -36.00000 103 82 117
18.00000 -22.00000 -36.00000 129 98 144
16.00000 -22.00000 -34.00000 118 97 132
16.00000 -20.00000 -34.00000 131 107 147
16.00000 -20.00000 -32.00000 122 110 129
18.00000 -22.00000 -34.00000 129 105 147
18.00000 -20.00000 -34.00000 130 112 140
18.00000 -20.00000 -32.00000 110 93 125
16.00000 -18.00000 -34.00000 135 112 147
16.00000 -18.00000 -32.00000 143 114 157
16.00000 -16.00000 -32.00000 152 127 166
18.00000 -18.00000 -32.00000 106 91 119
18.00000 -20.00000 -30.00000 109 102 122
16.00000 -18.00000 -30.00000 156 127 179
16.00000 -16.00000 -30.00000 149 120 164
16.00000 -16.00000 -28.00000 118 106 127
18.00000 -18.00000 -30.00000 120 101 132
18.00000 -18.00000 -28.00000 136 108 154
18.00000 -16.00000 -30.00000 129 110 141
18.00000 -16.00000 -28.00000 113 100 128
18.00000 -16.00000 -26.00000 101 94 114
6.00000 -14.00000 -46.00000 145 117 163
6.00000 -14.00000 -44.00000 137 110 152
6.00000 -12.00000 -46.00000 152 121 167
6.00000 -12.00000 -44.00000 140 116 156
6.00000 -14.00000 -42.00000 134 109 148
6.00000 -14.00000 -40.00000 144 117 158
6.00000 -12.00000 -42.00000 150 121 165
6.00000 -12.00000 -40.00000 154 123 169
8.00000 -14.00000 -46.00000 152 119 173
8.00000 -12.00000 -46.00000 144 118 162
8.00000 -12.00000 -44.00000 148 117 167
10.00000 -12.00000 -46.00000 134 115 146
8.00000 -14.00000 -40.00000 134 107 148
8.00000 -12.00000 -42.00000 156 129 171
8.00000 -12.00000 -40.00000 167 135 184
8.00000 -10.00000 -46.00000 147 122 161
8.00000 -10.00000 -44.00000 152 125 166
8.00000 -8.00000 -46.00000 142 119 156
8.00000 -8.00000 -44.00000 157 126 174
10.00000 -10.00000 -46.00000 140 120 156
10.00000 -8.00000 -46.00000 127 109 143
8.00000 -10.00000 -42.00000 149 122 164
8.00000 -10.00000 -40.00000 148 123 162
8.00000 -8.00000 -42.00000 142 111 159
8.00000 -8.00000 -40.00000 139 112 154
6.00000 -14.00000 -38.00000 154 123 169
6.00000 -8.00000 -38.00000 141 119 157
6.00000 -8.00000 -36.00000 141 113 159
8.00000 -14.00000 -38.00000 148 116 163
8.00000 -12.00000 -38.00000 147 118 161
8.00000 -12.00000 -36.00000 150 116 165
10.00000 -14.00000 -38.00000 148 121 162
10.00000 -14.00000 -36.00000 126 105 138
10.00000 -12.00000 -38.00000 151 119 166
10.00000 -12.00000 -36.00000 138 115 152
8.00000 -10.00000 -38.00000 140 113 155
8.00000 -10.00000 -36.00000 151 117 168
8.00000 -8.00000 -38.00000 138 113 152
8.00000 -8.00000 -36.00000 151 120 170
10.00000 -10.00000 -36.00000 145 118 159
10.00000 -8.00000 -36.00000 127 99 138
8.00000 -8.00000 -34.00000 168 133 189
10.00000 -10.00000 -34.00000 131 110 143
10.00000 -8.00000 -34.00000 131 107 147
8.00000 -6.00000 -46.00000 127 103 145
8.00000 -6.00000 -44.00000 145 117 164
8.00000 -4.00000 -46.00000 133 103 152
8.00000 -4.00000 -44.00000 136 111 158
10.00000 -6.00000 -46.00000 110 91 130
10.00000 -4.00000 -46.00000 120 96 138
8.00000 -6.00000 -42.00000 142 112 161
8.00000 -6.00000 -40.00000 133 109 149
8.00000 -4.00000 -42.00000 151 124 173
8.00000 -4.00000 -40.00000 151 123 169
8.00000 -2.00000 -46.00000 123 97 142
8.00000 -2.00000 -44.00000 136 109 159
8.00000 0.00000 -44.00000 142 119 164
10.00000 -2.00000 -46.00000 101 87 118
10.00000 -2.00000 -44.00000 128 111 148
10.00000 0.00000 -46.00000 127 110 146
10.00000 0.00000 -44.00000 156 131 178
8.00000 -2.00000 -42.00000 141 118 161
8.00000 -2.00000 -40.00000 143 115 162
8.00000 0.00000 -42.00000 142 119 162
8.00000 0.00000 -40.00000 152 129 174
10.00000 0.00000 -42.00000 156 127 179
6.00000 -6.00000 -38.00000 136 109 151
6.00000 -6.00000 -36.00000 135 111 153
6.00000 -4.00000 -36.00000 148 116 165
6.00000 -4.00000 -34.00000 152 119 165
6.00000 -2.00000 -36.00000 145 121 161
6.00000 -2.00000 -34.00000 151 123 169
6.00000 -2.00000 -32.00000 144 120 160
6.00000 0.00000 -34.00000 140 112 158
6.00000 0.00000 -32.00000 146 122 162
8.00000 -6.00000 -38.00000 133 111 149
8.00000 -6.00000 -36.00000 141 108 154
8.00000 -4.00000 -38.00000 144 116 162
8.00000 -4.00000 -36.00000 163 129 180
8.00000 -6.00000 -34.00000 156 124 173
8.00000 -6.00000 -32.00000 158 127 175
8.00000 -4.00000 -34.00000 154 123 171
8.00000 -4.00000 -32.00000 166 122 186
10.00000 -6.00000 -34.00000 140 117 154
10.00000 -6.00000 -32.00000 138 115 152
10.00000 -4.00000 -32.00000 143 118 157
8.00000 -2.00000 -38.00000 140 118 156
8.00000 -2.00000 -36.00000 155 130 169
8.00000 0.00000 -38.00000 149 121 168
8.00000 0.00000 -36.00000 154 123 171
8.00000 -2.00000 -32.00000 157 126 174
8.00000 0.00000 -34.00000 146 118 165
10.00000 -2.00000 -32.00000 166 135 185
12.00000 -12.00000 -46.00000 128 109 148
12.00000 -10.00000 -46.00000 117 100 132
12.00000 -8.00000 -46.00000 106 96 123
14.00000 -10.00000 -46.00000 97 85 114
14.00000 -8.00000 -46.00000 108 95 123
12.00000 -14.00000 -38.00000 138 129 149
12.00000 -14.00000 -36.00000 121 103 133
12.00000 -12.00000 -36.00000 116 103 129
14.00000 -14.00000 -36.00000 136 113 150
12.00000 -14.00000 -34.00000 135 115 151
12.00000 -12.00000 -34.00000 135 112 149
12.00000 -12.00000 -32.00000 134 109 148
14.00000 -14.00000 -34.00000 139 115 155
14.00000 -14.00000 -32.00000 165 136 180
14.00000 -12.00000 -34.00000 138 115 152
14.00000 -12.00000 -32.00000 142 117 156
12.00000 -10.00000 -36.00000 147 120 162
12.00000 -10.00000 -34.00000 143 121 161
12.00000 -10.00000 -32.00000 136 111 148
12.00000 -8.00000 -34.00000 152 128 168
12.00000 -8.00000 -32.00000 141 116 155
14.00000 -10.00000 -32.00000 144 119 158
14.00000 -8.00000 -32.00000 130 106 146
12.00000 -6.00000 -46.00000 99 85 116
12.00000 -4.00000 -46.00000 123 99 139
14.00000 -6.00000 -46.00000 127 110 142
12.00000 -6.00000 -34.00000 146 122 164
12.00000 -6.00000 -32.00000 132 109 144
12.00000 -4.00000 -32.00000 131 107 147
14.00000 -6.00000 -32.00000 131 110 145
4.00000 0.00000 -30.00000 134 114 150
4.00000 0.00000 -28.00000 147 120 162
6.00000 -2.00000 -30.00000 149 123 167
6.00000 -2.00000 -28.00000 140 118 158
6.00000 0.00000 -30.00000 144 117 159
6.00000 0.00000 -28.00000 136 112 152
4.00000 0.00000 -26.00000 139 115 155
4.00000 0.00000 -24.00000 144 115 159
6.00000 0.00000 -26.00000 142 117 154
6.00000 0.00000 -24.00000 152 121 167
8.00000 -2.00000 -30.00000 155 125 174
8.00000 -2.00000 -28.00000 126 101 138
8.00000 0.00000 -28.00000 133 108 147
10.00000 -2.00000 -30.00000 155 124 176
10.00000 -2.00000 -28.00000 129 107 145
8.00000 -2.00000 -26.00000 129 110 141
8.00000 0.00000 -26.00000 136 111 148
8.00000 0.00000 -24.00000 149 120 163
10.00000 -2.00000 -26.00000 130 108 146
10.00000 0.00000 -26.00000 128 102 146
10.00000 0.00000 -24.00000 134 110 150
4.00000 0.00000 -22.00000 154 126 172
4.00000 0.00000 -20.00000 154 122 169
6.00000 0.00000 -22.00000 143 116 157
6.00000 0.00000 -20.00000 150 123 165
4.00000 0.00000 -18.00000 158 126 175
6.00000 0.00000 -18.00000 143 114 157
6.00000 0.00000 -16.00000 154 119 167
8.00000 0.00000 -22.00000 143 116 158
8.00000 0.00000 -20.00000 143 112 158
10.00000 0.00000 -22.00000 135 111 151
10.00000 0.00000 -20.00000 141 114 156
8.00000 0.00000 -18.00000 143 116 157
8.00000 0.00000 -16.00000 151 124 166
10.00000 0.00000 -18.00000 156 128 174
10.00000 0.00000 -16.00000 160 129 175
14.00000 -14.00000 -30.00000 172 144 190
14.00000 -12.00000 -30.00000 157 133 173
14.00000 -12.00000 -28.00000 154 129 168
14.00000 -10.00000 -30.00000 153 126 167
14.00000 -10.00000 -28.00000 145 120 159
14.00000 -8.00000 -30.00000 142 118 158
14.00000 -8.00000 -28.00000 154 125 169
16.00000 -14.00000 -30.00000 156 131 170
16.00000 -14.00000 -28.00000 114 103 127
16.00000 -12.00000 -30.00000 142 111 157
16.00000 -12.00000 -28.00000 135 116 147
18.00000 -14.00000 -28.00000 90 87 96
18.00000 -12.00000 -28.00000 109 97 119
16.00000 -12.00000 -26.00000 150 119 169
18.00000 -14.00000 -26.00000 89 87 99
18.00000 -12.00000 -26.00000 120 105 133
16.00000 -10.00000 -28.00000 141 117 157
16.00000 -8.00000 -28.00000 145 121 161
16.00000 -10.00000 -26.00000 149 122 164
16.00000 -8.00000 -26.00000 165 134 182
18.00000 -10.00000 -26.00000 138 111 153
18.00000 -10.00000 -24.00000 125 107 137
18.00000 -8.00000 -26.00000 124 106 139
18.00000 -8.00000 -24.00000 138 117 152
12.00000 -6.00000 -30.00000 135 112 149
12.00000 -4.00000 -30.00000 141 110 158
14.00000 -6.00000 -30.00000 154 111 170
14.00000 -6.00000 -28.00000 157 126 174
14.00000 -4.00000 -30.00000 145 117 163
14.00000 -4.00000 -28.00000 145 122 157
12.00000 -2.00000 -30.00000 131 113 143
12.00000 -2.00000 -28.00000 126 105 140
12.00000 0.00000 -28.00000 118 94 134
14.00000 -2.00000 -30.00000 149 119 168
14.00000 -2.00000 -28.00000 137 113 153
14.00000 0.00000 -28.00000 127 106 141
12.00000 0.00000 -26.00000 126 98 145
12.00000 0.00000 -24.00000 137 113 155
14.00000 -2.00000 -26.00000 117 99 129
14.00000 0.00000 -26.00000 115 97 125
14.00000 0.00000 -24.00000 129 102 144
16.00000 -6.00000 -28.00000 168 137 183
16.00000 -4.00000 -28.00000 146 123 158
16.00000 -6.00000 -26.00000 176 147 191
16.00000 -4.00000 -26.00000 136 115 148
18.00000 -6.00000 -26.00000 167 139 186
18.00000 -6.00000 -24.00000 161 131 182
18.00000 -4.00000 -26.00000 140 119 152
16.00000 -2.00000 -28.00000 131 112 143
16.00000 -2.00000 -26.00000 133 109 149
16.00000 0.00000 -26.00000 134 110 152
16.00000 0.00000 -24.00000 122 103 132
18.00000 -2.00000 -26.00000 131 110 143
18.00000 0.00000 -26.00000 137 113 155
18.00000 0.00000 -24.00000 128 104 144
12.00000 0.00000 -22.00000 123 102 135
12.00000 0.00000 -20.00000 132 105 147
14.00000 0.00000 -22.00000 131 102 146
14.00000 0.00000 -20.00000 133 110 147
12.00000 0.00000 -18.00000 145 118 159
12.00000 0.00000 -16.00000 142 119 156
14.00000 0.00000 -18.00000 144 117 159
14.00000 0.00000 -16.00000 149 118 168
16.00000 0.00000 -22.00000 128 106 144
16.00000 0.00000 -20.00000 143 117 161
18.00000 0.00000 -22.00000 134 110 150
20.00000 -30.00000 -46.00000 119 97 137
20.00000 -30.00000 -44.00000 126 103 146
20.00000 -28.00000 -46.00000 98 81 117
20.00000 -28.00000 -44.00000 115 98 135
22.00000 -30.00000 -46.00000 118 98 134
22.00000 -28.00000 -46.00000 121 100 141
22.00000 -28.00000 -44.00000 109 93 128
20.00000 -30.00000 -42.00000 104 88 127
20.00000 -30.00000 -40.00000 95 79 114
20.00000 -28.00000 -42.00000 100 86 119
20.00000 -28.00000 -40.00000 119 99 137
22.00000 -28.00000 -42.00000 103 87 122
22.00000 -28.00000 -40.00000 117 100 136
20.00000 -26.00000 -40.00000 157 121 174
22.00000 -26.00000 -40.00000 129 99 148
24.00000 -30.00000 -46.00000 136 106 159
24.00000 -28.00000 -46.00000 122 100 140
24.00000 -28.00000 -44.00000 126 105 146
26.00000 -30.00000 -46.00000 129 108 149
26.00000 -28.00000 -46.00000 113 96 128
26.00000 -28.00000 -44.00000 141 118 161
24.00000 -28.00000 -42.00000 106 92 123
24.00000 -28.00000 -40.00000 114 97 130
26.00000 -28.00000 -42.00000 112 104 128
26.00000 -26.00000 -46.00000 131 112 151
26.00000 -26.00000 -44.00000 124 109 147
24.00000 -26.00000 -42.00000 101 92 114
24.00000 -26.00000 -40.00000 117 99 133
24.00000 -24.00000 -40.00000 138 107 157
26.00000 -26.00000 -42.00000 140 119 160
26.00000 -26.00000 -40.00000 155 130 177
26.00000 -24.00000 -42.00000 135 117 147
26.00000 -24.00000 -40.00000 154 123 171
20.00000 -28.00000 -38.00000 142 111 159
20.00000 -26.00000 -38.00000 153 120 172
20.00000 -24.00000 -38.00000 146 117 160
20.00000 -24.00000 -36.00000 133 108 147
22.00000 -26.00000 -38.00000 140 111 155
22.00000 -24.00000 -38.00000 126 102 142
22.00000 -24.00000 -36.00000 145 116 160
24.00000 -26.00000 -38.00000 131 103 149
24.00000 -24.00000 -38.00000 133 104 148
24.00000 -22.00000 -40.00000 146 117 161
24.00000 -20.00000 -40.00000 115 101 125
26.00000 -22.00000 -42.00000 130 109 142
26.00000 -22.00000 -40.00000 148 119 162
26.00000 -20.00000 -42.00000 121 103 137
26.00000 -20.00000 -40.00000 133 109 149
24.00000 -18.00000 -40.00000 114 96 129
26.00000 -18.00000 -42.00000 98 83 111
26.00000 -18.00000 -40.00000 102 73 117
26.00000 -16.00000 -42.00000 108 91 127
26.00000 -16.00000 -40.00000 118 102 128
20.00000 -22.00000 -36.00000 131 108 145
22.00000 -22.00000 -38.00000 145 118 159
22.00000 -22.00000 -36.00000 128 107 140
22.00000 -20.00000 -36.00000 147 121 165
20.00000 -22.00000 -34.00000 131 107 147
20.00000 -20.00000 -34.00000 138 123 151
20.00000 -20.00000 -32.00000 117 89 135
22.00000 -22.00000 -34.00000 148 117 169
22.00000 -20.00000 -34.00000 136 111 150
22.00000 -20.00000 -32.00000 120 103 135
22.00000 -18.00000 -32.00000 148 123 162
24.00000 -22.00000 -38.00000 147 118 162
24.00000 -22.00000 -36.00000 148 113 169
24.00000 -20.00000 -38.00000 135 116 147
24.00000 -20.00000 -36.00000 130 110 146
24.00000 -20.00000 -34.00000 127 99 145
24.00000 -20.00000 -32.00000 158 130 176
24.00000 -18.00000 -38.00000 123 102 135
24.00000 -18.00000 -36.00000 132 111 146
26.00000 -18.00000 -38.00000 119 101 135
26.00000 -18.00000 -36.00000 134 110 150
26.00000 -16.00000 -38.00000 110 98 120
26.00000 -16.00000 -36.00000 133 111 149
24.00000 -18.00000 -34.00000 135 106 150
24.00000 -18.00000 -32.00000 154 123 169
26.00000 -18.00000 -34.00000 138 115 150
26.00000 -18.00000 -32.00000 151 118 170
26.00000 -16.00000 -34.00000 146 115 163
26.00000 -16.00000 -32.00000 150 119 165
28.00000 -30.00000 -46.00000 130 107 150
28.00000 -28.00000 -46.00000 140 115 163
30.00000 -30.00000 -46.00000 144 114 165
30.00000 -28.00000 -46.00000 143 112 164
28.00000 -26.00000 -46.00000 128 109 150
28.00000 -26.00000 -44.00000 140 121 160
28.00000 -24.00000 -46.00000 135 112 157
28.00000 -24.00000 -44.00000 136 115 158
30.00000 -26.00000 -46.00000 137 114 157
30.00000 -24.00000 -46.00000 146 125 168
30.00000 -24.00000 -44.00000 155 130 178
28.00000 -26.00000 -42.00000 132 105 154
28.00000 -24.00000 -42.00000 128 102 147
32.00000 -30.00000 -46.00000 142 118 158
32.00000 -28.00000 -46.00000 132 105 147
34.00000 -30.00000 -46.00000 131 107 149
28.00000 -22.00000 -44.00000 154 127 177
28.00000 -20.00000 -44.00000 136 114 152
30.00000 -22.00000 -46.00000 149 123 175
30.00000 -22.00000 -44.00000 141 112 164
30.00000 -20.00000 -46.00000 163 134 188
30.00000 -20.00000 -44.00000 143 112 164
28.00000 -22.00000 -42.00000 121 100 135
28.00000 -20.00000 -42.00000 112 99 125
28.00000 -18.00000 -44.00000 155 124 172
30.00000 -18.00000 -46.00000 147 116 168
30.00000 -18.00000 -44.00000 152 123 167
30.00000 -16.00000 -46.00000 151 124 165
30.00000 -16.00000 -44.00000 148 121 162
28.00000 -18.00000 -42.00000 128 107 142
28.00000 -16.00000 -42.00000 129 108 143
28.00000 -16.00000 -40.00000 94 85 107
30.00000 -18.00000 -42.00000 146 120 155
30.00000 -16.00000 -42.00000 157 126 172
20.00000 -20.00000 -30.00000 123 96 138
22.00000 -20.00000 -30.00000 142 114 161
20.00000 -18.00000 -30.00000 118 101 134
20.00000 -18.00000 -28.00000 128 104 144
20.00000 -16.00000 -28.00000 138 114 156
22.00000 -18.00000 -30.00000 133 111 151
22.00000 -18.00000 -28.00000 145 112 164
20.00000 -18.00000 -26.00000 144 117 159
20.00000 -16.00000 -26.00000 126 105 140
22.00000 -18.00000 -26.00000 135 103 152
22.00000 -16.00000 -26.00000 149 116 168
24.00000 -18.00000 -30.00000 158 127 173
24.00000 -18.00000 -28.00000 158 127 175
24.00000 -16.00000 -30.00000 167 138 182
24.00000 -16.00000 -28.00000 169 135 186
26.00000 -16.00000 -30.00000 153 122 172
26.00000 -16.00000 -28.00000 162 134 180
24.00000 -16.00000 -26.00000 161 128 180
26.00000 -14.00000 -40.00000 117 108 130
26.00000 -14.00000 -38.00000 92 87 103
26.00000 -14.00000 -36.00000 139 112 154
26.00000 -12.00000 -38.00000 102 95 113
26.00000 -12.00000 -36.00000 149 121 167
26.00000 -14.00000 -34.00000 152 121 167
26.00000 -14.00000 -32.00000 166 134 181
26.00000 -12.00000 -34.00000 151 124 165
30.00000 -14.00000 -46.00000 155 126 170
30.00000 -14.00000 -44.00000 169 135 184
30.00000 -12.00000 -46.00000 176 137 198
30.00000 -12.00000 -44.00000 169 133 187
28.00000 -14.00000 -42.00000 148 120 166
28.00000 -14.00000 -40.00000 98 89 111
28.00000 -12.00000 -40.00000 144 119 158
30.00000 -14.00000 -42.00000 168 132 186
30.00000 -14.00000 -40.00000 143 112 162
30.00000 -12.00000 -42.00000 161 129 178
30.00000 -12.00000 -40.00000 152 122 171
30.00000 -10.00000 -46.00000 178 139 202
30.00000 -10.00000 -44.00000 191 140 214
30.00000 -8.00000 -46.00000 201 161 228
30.00000 -8.00000 -44.00000 196 152 222
28.00000 -10.00000 -40.00000 157 126 174
30.00000 -10.00000 -42.00000 184 144 204
30.00000 -10.00000 -40.00000 164 133 183
30.00000 -8.00000 -42.00000 177 141 202
30.00000 -8.00000 -40.00000 184 152 201
32.00000 -10.00000 -42.00000 214 174 231
32.00000 -10.00000 -40.00000 196 154 214
32.00000 -8.00000 -42.00000 187 153 202
32.00000 -8.00000 -40.00000 191 153 209
28.00000 -12.00000 -38.00000 134 113 148
28.00000 -12.00000 -36.00000 159 126 178
28.00000 -14.00000 -34.00000 142 118 158
28.00000 -14.00000 -32.00000 160 129 175
28.00000 -12.00000 -34.00000 159 126 178
28.00000 -12.00000 -32.00000 155 124 172
28.00000 -10.00000 -38.00000 138 117 152
28.00000 -10.00000 -36.00000 154 121 175
28.00000 -8.00000 -38.00000 135 118 151
28.00000 -8.00000 -36.00000 134 110 152
30.00000 -10.00000 -38.00000 169 140 183
30.00000 -8.00000 -38.00000 171 140 186
30.00000 -8.00000 -36.00000 164 140 180
28.00000 -10.00000 -34.00000 173 133 193
28.00000 -10.00000 -32.00000 155 123 172
28.00000 -8.00000 -34.00000 164 125 186
28.00000 -8.00000 -32.00000 178 141 199
32.00000 -8.00000 -38.00000 178 136 198
30.00000 -6.00000 -46.00000 209 162 230
30.00000 -6.00000 -44.00000 179 142 200
30.00000 -4.00000 -46.00000 194 153 216
30.00000 -4.00000 -44.00000 188 156 211
28.00000 0.00000 -46.00000 185 145 203
30.00000 -2.00000 -46.00000 185 146 207
30.00000 -2.00000 -44.00000 181 142 205
30.00000 0.00000 -46.00000 195 156 217
30.00000 0.00000 -44.00000 194 154 212
32.00000 -6.00000 -44.00000 163 129 188
32.00000 -4.00000 -44.00000 193 163 216
32.00000 -6.00000 -42.00000 186 143 216
32.00000 -6.00000 -40.00000 200 156 220
32.00000 -4.00000 -42.00000 203 161 221
32.00000 -4.00000 -40.00000 209 165 227
34.00000 -4.00000 -40.00000 182 151 201
32.00000 -2.00000 -44.00000 208 163 229
32.00000 0.00000 -44.00000 158 130 186
32.00000 -2.00000 -42.00000 185 151 202
32.00000 -2.00000 -40.00000 183 151 198
32.00000 0.00000 -42.00000 176 141 197
32.00000 0.00000 -40.00000 174 131 190
34.00000 -2.00000 -42.00000 164 136 182
34.00000 -2.00000 -40.00000 177 136 201
34.00000 0.00000 -42.00000 184 144 201
34.00000 0.00000 -40.00000 186 141 206
28.00000 -6.00000 -36.00000 146 116 169
30.00000 -6.00000 -38.00000 184 148 201
30.00000 -6.00000 -36.00000 166 135 185
30.00000 -4.00000 -36.00000 159 124 181
28.00000 -6.00000 -34.00000 135 108 157
28.00000 -6.00000 -32.00000 141 111 166
28.00000 -4.00000 -34.00000 150 108 180
28.00000 -4.00000 -32.00000 143 102 175
30.00000 -6.00000 -34.00000 125 97 153
30.00000 -4.00000 -34.00000 135 111 161
30.00000 -4.00000 -32.00000 142 108 169
32.00000 -6.00000 -38.00000 192 150 210
32.00000 -6.00000 -36.00000 179 137 199
32.00000 -4.00000 -38.00000 181 147 198
32.00000 -4.00000 -36.00000 165 132 186
34.00000 -4.00000 -38.00000 182 143 204
34.00000 -4.00000 -36.00000 153 123 172
32.00000 -4.00000 -34.00000 152 120 175
32.00000 -4.00000 -32.00000 152 114 179
34.00000 -4.00000 -34.00000 156 119 178
34.00000 -4.00000 -32.00000 142 110 165
34.00000 -2.00000 -38.00000 181 144 203
34.00000 -2.00000 -36.00000 154 123 173
34.00000 0.00000 -38.00000 184 140 208
20.00000 -14.00000 -26.00000 105 92 118
20.00000 -14.00000 -24.00000 114 97 129
20.00000 -12.00000 -26.00000 114 98 124
20.00000 -12.00000 -24.00000 132 111 146
22.00000 -14.00000 -26.00000 126 98 144
22.00000 -14.00000 -24.00000 133 105 151
22.00000 -12.00000 -24.00000 123 103 139
20.00000 -10.00000 -26.00000 147 133 164
20.00000 -10.00000 -24.00000 152 125 166
20.00000 -8.00000 -24.00000 128 110 140
22.00000 -10.00000 -24.00000 130 110 146
22.00000 -8.00000 -24.00000 124 103 144
26.00000 -14.00000 -30.00000 160 129 175
26.00000 -14.00000 -28.00000 172 140 189
26.00000 -12.00000 -30.00000 165 133 182
26.00000 -12.00000 -28.00000 171 137 186
24.00000 -14.00000 -26.00000 155 119 173
24.00000 -14.00000 -24.00000 145 112 166
24.00000 -12.00000 -26.00000 157 120 178
24.00000 -12.00000 -24.00000 140 112 159
26.00000 -14.00000 -26.00000 157 128 172
26.00000 -12.00000 -26.00000 160 123 182
26.00000 -10.00000 -28.00000 189 155 206
26.00000 -8.00000 -28.00000 155 125 180
24.00000 -10.00000 -24.00000 151 123 169
24.00000 -8.00000 -26.00000 171 140 192
24.00000 -8.00000 -24.00000 149 121 168
26.00000 -10.00000 -26.00000 168 130 185
26.00000 -10.00000 -24.00000 195 157 213
26.00000 -8.00000 -26.00000 158 127 179
26.00000 -8.00000 -24.00000 190 155 211
20.00000 -6.00000 -26.00000 173 146 187
20.00000 -6.00000 -24.00000 144 120 160
20.00000 -4.00000 -26.00000 155 131 173
20.00000 -4.00000 -24.00000 159 135 175
22.00000 -6.00000 -24.00000 136 112 154
22.00000 -4.00000 -26.00000 170 139 191
22.00000 -4.00000 -24.00000 150 119 167
20.00000 -2.00000 -26.00000 142 119 156
20.00000 0.00000 -26.00000 144 115 159
20.00000 0.00000 -24.00000 136 109 151
22.00000 -2.00000 -26.00000 154 123 171
22.00000 0.00000 -26.00000 126 103 138
22.00000 0.00000 -24.00000 130 103 145
24.00000 -4.00000 -28.00000 157 128 182
26.00000 -6.00000 -30.00000 160 124 185
26.00000 -6.00000 -28.00000 156 124 183
26.00000 -4.00000 -30.00000 161 133 180
26.00000 -4.00000 -28.00000 152 124 171
24.00000 -6.00000 -26.00000 156 122 181
24.00000 -6.00000 -24.00000 148 120 167
24.00000 -4.00000 -26.00000 141 111 164
24.00000 -4.00000 -24.00000 137 105 160
26.00000 -6.00000 -26.00000 150 118 175
26.00000 -4.00000 -26.00000 139 114 161
26.00000 -2.00000 -28.00000 150 114 175
24.00000 -2.00000 -26.00000 136 110 154
24.00000 0.00000 -26.00000 137 113 153
24.00000 0.00000 -24.00000 140 113 155
26.00000 -2.00000 -26.00000 145 123 161
26.00000 0.00000 -26.00000 148 123 170
26.00000 0.00000 -24.00000 137 115 153
28.00000 -12.00000 -30.00000 169 134 190
28.00000 -12.00000 -28.00000 184 139 204
28.00000 -10.00000 -30.00000 158 127 175
28.00000 -10.00000 -28.00000 175 142 194
28.00000 -8.00000 -30.00000 158 125 177
28.00000 -8.00000 -28.00000 168 137 187
28.00000 -6.00000 -30.00000 163 126 185
28.00000 -6.00000 -28.00000 162 131 183
28.00000 -4.00000 -30.00000 140 98 168
28.00000 -4.00000 -28.00000 162 132 187
30.00000 -4.00000 -30.00000 151 109 179
28.00000 -2.00000 -30.00000 147 109 174
28.00000 -2.00000 -28.00000 162 130 187
30.00000 -2.00000 -30.00000 153 114 185
30.00000 -2.00000 -28.00000 151 115 176
28.00000 -2.00000 -26.00000 150 138 167
28.00000 0.00000 -26.00000 157 129 176
28.00000 0.00000 -24.00000 146 118 165
30.00000 -2.00000 -26.00000 146 118 165
30.00000 -2.00000 -24.00000 134 104 153
30.00000 0.00000 -24.00000 135 109 154
32.00000 -4.00000 -30.00000 152 120 177
34.00000 -4.00000 -30.00000 151 115 176
32.00000 -2.00000 -30.00000 153 114 177
32.00000 -2.00000 -28.00000 138 109 163
34.00000 -2.00000 -30.00000 148 116 171
34.00000 -2.00000 -28.00000 144 112 169
32.00000 -2.00000 -26.00000 139 110 162
32.00000 -2.00000 -24.00000 137 109 156
32.00000 0.00000 -24.00000 127 102 149
34.00000 -2.00000 -26.00000 120 95 143
34.00000 -2.00000 -24.00000 121 100 141
28.00000 0.00000 -22.00000 139 113 157
30.00000 0.00000 -22.00000 129 105 147
30.00000 0.00000 -20.00000 134 115 146
32.00000 -2.00000 -22.00000 121 107 140
32.00000 0.00000 -22.00000 123 110 138
32.00000 0.00000 -20.00000 150 119 167
34.00000 -2.00000 -22.00000 146 121 169
34.00000 0.00000 -22.00000 137 112 159
34.00000 0.00000 -20.00000 143 119 161
32.00000 0.00000 -18.00000 153 125 172
34.00000 0.00000 -18.00000 158 125 177
0.00000 0.00000 0.00000 133 132 137
40.00000 -112.00000 -64.00000 198 161 219
42.00000 -114.00000 -64.00000 197 155 217
42.00000 -112.00000 -64.00000 195 151 205
46.00000 -116.00000 -64.00000 172 135 193
44.00000 -114.00000 -64.00000 188 152 205
44.00000 -112.00000 -66.00000 203 160 219
44.00000 -112.00000 -64.00000 218 172 230
46.00000 -114.00000 -64.00000 191 153 208
46.00000 -112.00000 -66.00000 161 131 184
46.00000 -112.00000 -64.00000 194 156 211
48.00000 -116.00000 -64.00000 190 154 197
48.00000 -114.00000 -64.00000 182 149 201
48.00000 -112.00000 -64.00000 185 155 206
50.00000 -114.00000 -64.00000 173 140 192
50.00000 -112.00000 -64.00000 193 163 218
40.00000 -120.00000 -56.00000 172 135 185
42.00000 -122.00000 -56.00000 186 144 204
42.00000 -120.00000 -58.00000 182 142 192
42.00000 -120.00000 -56.00000 173 137 190
38.00000 -120.00000 -54.00000 156 119 177
38.00000 -120.00000 -52.00000 181 153 200
38.00000 -120.00000 -50.00000 179 147 196
38.00000 -120.00000 -48.00000 162 133 177
42.00000 -124.00000 -54.00000 174 142 191
42.00000 -124.00000 -52.00000 184 142 202
42.00000 -124.00000 -50.00000 162 126 180
40.00000 -122.00000 -54.00000 152 127 166
40.00000 -122.00000 -52.00000 153 122 158
40.00000 -120.00000 -54.00000 166 133 179
40.00000 -120.00000 -52.00000 162 130 177
42.00000 -122.00000 -54.00000 151 128 163
42.00000 -122.00000 -52.00000 168 136 179
42.00000 -120.00000 -54.00000 153 121 168
40.00000 -122.00000 -50.00000 166 132 183
40.00000 -122.00000 -48.00000 155 122 176
40.00000 -120.00000 -50.00000 178 144 193
40.00000 -120.00000 -48.00000 162 125 176
42.00000 -122.00000 -50.00000 133 112 145
42.00000 -122.00000 -48.00000 148 119 162
42.00000 -120.00000 -48.00000 156 129 170
36.00000 -116.00000 -56.00000 160 133 174
38.00000 -118.00000 -56.00000 174 136 191
38.00000 -116.00000 -58.00000 184 144 204
38.00000 -116.00000 -56.00000 152 122 161
36.00000 -112.00000 -60.00000 189 149 206
38.00000 -114.00000 -60.00000 210 167 224
38.00000 -112.00000 -62.00000 196 156 214
38.00000 -112.00000 -60.00000 189 151 206
36.00000 -114.00000 -58.00000 201 158 217
36.00000 -114.00000 -56.00000 187 153 202
36.00000 -112.00000 -58.00000 169 136 182
36.00000 -112.00000 -56.00000 173 140 186
38.00000 -114.00000 -58.00000 185 145 202
38.00000 -114.00000 -56.00000 168 137 183
38.00000 -112.00000 -58.00000 190 152 207
38.00000 -112.00000 -56.00000 133 106 148
40.00000 -116.00000 -60.00000 196 155 210
42.00000 -118.00000 -60.00000 193 155 210
42.00000 -116.00000 -62.00000 201 162 214
42.00000 -116.00000 -60.00000 197 162 210
40.00000 -118.00000 -58.00000 190 149 203
40.00000 -118.00000 -56.00000 167 130 181
40.00000 -116.00000 -58.00000 192 152 209
40.00000 -116.00000 -56.00000 173 142 187
42.00000 -118.00000 -58.00000 178 143 191
42.00000 -118.00000 -56.00000 171 134 185
42.00000 -116.00000 -58.00000 196 157 210
42.00000 -116.00000 -56.00000 119 101 134
40.00000 -114.00000 -62.00000 181 146 194
40.00000 -114.00000 -60.00000 192 151 206
40.00000 -112.00000 -62.00000 198 160 216
40.00000 -112.00000 -60.00000 200 161 214
42.00000 -114.00000 -62.00000 194 152 212
42.00000 -114.00000 -60.00000 184 147 198
42.00000 -112.00000 -62.00000 202 157 218
42.00000 -112.00000 -60.00000 165 133 180
40.00000 -114.00000 -58.00000 199 159 216
40.00000 -114.00000 -56.00000 165 133 180
40.00000 -112.00000 -58.00000 187 150 201
40.00000 -112.00000 -56.00000 154 127 169
42.00000 -114.00000 -58.00000 145 118 160
42.00000 -114.00000 -56.00000 157 128 172
42.00000 -112.00000 -58.00000 143 118 157
42.00000 -112.00000 -56.00000 173 142 187
36.00000 -118.00000 -52.00000 170 138 181
36.00000 -116.00000 -54.00000 168 136 183
36.00000 -116.00000 -52.00000 172 140 187
38.00000 -118.00000 -54.00000 168 133 179
38.00000 -118.00000 -52.00000 169 135 184
38.00000 -116.00000 -54.00000 156 128 165
36.00000 -118.00000 -50.00000 170 136 187
36.00000 -118.00000 -48.00000 160 128 177
36.00000 -116.00000 -50.00000 181 141 199
36.00000 -116.00000 -48.00000 163 128 176
38.00000 -118.00000 -50.00000 176 144 191
38.00000 -118.00000 -48.00000 152 124 170
38.00000 -116.00000 -48.00000 153 125 164
36.00000 -114.00000 -54.00000 178 146 193
36.00000 -114.00000 -52.00000 176 140 193
36.00000 -112.00000 -54.00000 209 166 223
36.00000 -112.00000 -52.00000 175 145 184
38.00000 -112.00000 -54.00000 125 101 141
36.00000 -114.00000 -50.00000 181 141 201
36.00000 -114.00000 -48.00000 164 130 181
36.00000 -112.00000 -48.00000 164 133 183
38.00000 -114.00000 -48.00000 134 110 150
38.00000 -112.00000 -48.00000 113 100 128
40.00000 -118.00000 -54.00000 171 134 185
40.00000 -116.00000 -54.00000 126 108 142
40.00000 -116.00000 -52.00000 143 118 157
42.00000 -118.00000 -54.00000 125 101 141
42.00000 -118.00000 -52.00000 145 123 161
42.00000 -116.00000 -54.00000 121 102 133
42.00000 -116.00000 -52.00000 142 115 156
40.00000 -118.00000 -48.00000 136 115 150
40.00000 -116.00000 -48.00000 126 108 141
42.00000 -118.00000 -50.00000 169 131 186
42.00000 -118.00000 -48.00000 117 100 133
42.00000 -116.00000 -50.00000 143 121 159
42.00000 -116.00000 -48.00000 139 111 158
40.00000 -114.00000 -54.00000 157 126 174
40.00000 -114.00000 -52.00000 168 137 185
40.00000 -112.00000 -54.00000 157 129 175
40.00000 -112.00000 -52.00000 145 121 161
42.00000 -114.00000 -52.00000 180 148 197
