ply
format ascii 1.0
element vertex 1158
property float x
property float y
property float z
property uchar green
property uchar blue
property uchar red
element face 0
property list uint8 int32 vertex_index
end_header
-13.68421 -70.52632 -56.84211 122 106 132
-12.63158 -71.57895 -57.89474 152 131 162
-12.63158 -71.57895 -56.84211 117 111 124
-12.63158 -70.52632 -57.89474 133 125 142
-13.68421 -68.42105 -58.94737 114 104 123
-12.63158 -69.47368 -60.00000 153 132 165
-12.63158 -69.47368 -58.94737 141 126 154
-12.63158 -68.42105 -60.00000 144 130 154
-12.63158 -68.42105 -58.94737 129 116 142
-13.68421 -69.47368 -57.89474 132 121 145
-13.68421 -69.47368 -56.84211 135 123 145
-13.68421 -68.42105 -57.89474 125 115 134
-13.68421 -68.42105 -56.84211 128 120 137
-12.63158 -69.47368 -57.89474 119 110 130
-14.73684 -71.57895 -54.73684 161 136 183
-14.73684 -70.52632 -54.73684 164 141 184
-14.73684 -71.57895 -53.68421 154 131 176
-14.73684 -71.57895 -52.63158 164 130 191
-14.73684 -70.52632 -53.68421 164 135 187
-14.73684 -70.52632 -52.63158 161 126 190
-14.73684 -69.47368 -55.78947 117 112 123
-14.73684 -69.47368 -54.73684 127 119 136
-14.73684 -68.42105 -55.78947 119 112 132
-14.73684 -68.42105 -54.73684 125 116 136
-15.78947 -69.47368 -52.63158 189 159 210
-15.78947 -68.42105 -53.68421 163 133 182
-15.78947 -68.42105 -52.63158 171 138 192
-14.73684 -69.47368 -53.68421 173 143 194
-14.73684 -69.47368 -52.63158 164 130 191
-14.73684 -68.42105 -53.68421 166 140 184
-14.73684 -68.42105 -52.63158 189 158 208
-13.68421 -71.57895 -55.78947 140 130 149
-13.68421 -71.57895 -54.73684 169 137 192
-13.68421 -70.52632 -55.78947 123 115 130
-13.68421 -70.52632 -54.73684 131 121 140
-13.68421 -69.47368 -55.78947 116 108 125
-13.68421 -68.42105 -55.78947 109 104 116
-18.94737 -68.42105 -48.42105 157 123 184
-16.84211 -70.52632 -48.42105 154 124 165
-17.89474 -68.42105 -50.52632 137 111 163
-16.84211 -69.47368 -50.52632 168 138 189
-16.84211 -68.42105 -51.57895 152 117 174
-16.84211 -68.42105 -50.52632 150 120 169
-17.89474 -69.47368 -48.42105 163 139 181
-17.89474 -68.42105 -49.47368 144 117 167
-17.89474 -68.42105 -48.42105 145 124 165
-16.84211 -69.47368 -49.47368 166 140 184
-16.84211 -69.47368 -48.42105 170 144 188
-16.84211 -68.42105 -49.47368 146 121 168
-20.00000 -70.52632 -44.21053 149 132 165
-18.94737 -70.52632 -45.26316 196 160 214
-18.94737 -70.52632 -44.21053 173 145 202
-20.00000 -69.47368 -46.31579 186 170 205
-20.00000 -68.42105 -46.31579 154 126 173
-18.94737 -69.47368 -47.36842 149 123 168
-18.94737 -69.47368 -46.31579 146 122 164
-18.94737 -68.42105 -47.36842 141 117 159
-18.94737 -68.42105 -46.31579 137 113 155
-20.00000 -69.47368 -45.26316 167 132 189
-20.00000 -69.47368 -44.21053 172 139 193
-20.00000 -68.42105 -45.26316 159 124 180
-18.94737 -69.47368 -45.26316 172 141 191
-18.94737 -69.47368 -44.21053 178 138 198
-17.89474 -70.52632 -46.31579 150 127 164
-16.84211 -70.52632 -47.36842 165 144 179
-16.84211 -70.52632 -46.31579 159 135 177
-17.89474 -70.52632 -45.26316 179 148 196
-17.89474 -70.52632 -44.21053 131 111 147
-16.84211 -70.52632 -45.26316 151 128 163
-16.84211 -70.52632 -44.21053 145 129 155
-17.89474 -69.47368 -47.36842 158 132 177
-17.89474 -69.47368 -46.31579 146 125 166
-17.89474 -68.42105 -47.36842 147 124 161
-16.84211 -69.47368 -47.36842 167 143 183
-15.78947 -74.73684 -50.52632 161 130 180
-14.73684 -75.78947 -51.57895 148 120 166
-14.73684 -75.78947 -50.52632 173 145 191
-14.73684 -74.73684 -51.57895 137 111 156
-14.73684 -74.73684 -50.52632 156 130 174
-15.78947 -75.78947 -49.47368 176 141 198
-15.78947 -75.78947 -48.42105 140 104 165
-15.78947 -74.73684 -49.47368 173 142 190
-15.78947 -74.73684 -48.42105 142 107 163
-14.73684 -75.78947 -49.47368 182 149 203
-15.78947 -73.68421 -50.52632 147 130 163
-15.78947 -72.63158 -50.52632 137 115 155
-14.73684 -73.68421 -51.57895 140 110 165
-14.73684 -73.68421 -50.52632 149 128 163
-14.73684 -72.63158 -51.57895 135 106 160
-14.73684 -72.63158 -50.52632 135 114 155
-15.78947 -73.68421 -49.47368 169 141 187
-15.78947 -73.68421 -48.42105 172 136 190
-15.78947 -72.63158 -49.47368 134 114 152
-15.78947 -72.63158 -48.42105 180 145 201
-15.78947 -75.78947 -47.36842 128 97 157
-15.78947 -75.78947 -46.31579 133 100 162
-15.78947 -74.73684 -47.36842 129 106 151
-15.78947 -74.73684 -46.31579 126 100 152
-14.73684 -75.78947 -46.31579 131 103 163
-15.78947 -74.73684 -45.26316 135 109 163
-14.73684 -75.78947 -45.26316 130 102 162
-14.73684 -75.78947 -44.21053 156 118 183
-14.73684 -74.73684 -45.26316 133 104 162
-14.73684 -74.73684 -44.21053 162 122 189
-15.78947 -73.68421 -47.36842 136 116 154
-15.78947 -73.68421 -46.31579 141 118 163
-15.78947 -72.63158 -47.36842 150 124 168
-15.78947 -72.63158 -46.31579 148 122 166
-15.78947 -73.68421 -45.26316 148 121 171
-15.78947 -73.68421 -44.21053 163 135 181
-15.78947 -72.63158 -45.26316 156 133 176
-15.78947 -72.63158 -44.21053 150 126 166
-14.73684 -73.68421 -45.26316 149 120 174
-14.73684 -73.68421 -44.21053 167 132 189
-14.73684 -72.63158 -44.21053 165 134 182
-15.78947 -71.57895 -50.52632 137 115 155
-15.78947 -70.52632 -51.57895 142 111 163
-15.78947 -70.52632 -50.52632 128 98 149
-14.73684 -71.57895 -51.57895 140 110 165
-14.73684 -71.57895 -50.52632 123 100 143
-14.73684 -70.52632 -51.57895 153 122 182
-14.73684 -70.52632 -50.52632 122 90 147
-15.78947 -71.57895 -49.47368 131 105 150
-15.78947 -71.57895 -48.42105 161 134 175
-15.78947 -70.52632 -49.47368 132 105 154
-15.78947 -70.52632 -48.42105 140 118 156
-15.78947 -69.47368 -51.57895 162 132 181
-15.78947 -69.47368 -50.52632 166 140 185
-15.78947 -68.42105 -51.57895 169 141 188
-15.78947 -68.42105 -50.52632 166 139 181
-14.73684 -69.47368 -51.57895 144 115 167
-15.78947 -69.47368 -49.47368 161 137 179
-15.78947 -69.47368 -48.42105 157 137 173
-15.78947 -71.57895 -47.36842 160 134 178
-15.78947 -71.57895 -46.31579 140 119 154
-15.78947 -70.52632 -47.36842 176 153 190
-15.78947 -70.52632 -46.31579 159 136 173
-15.78947 -71.57895 -45.26316 146 126 162
-15.78947 -71.57895 -44.21053 146 128 158
-15.78947 -70.52632 -45.26316 140 124 149
-15.78947 -70.52632 -44.21053 143 115 154
-13.68421 -67.36842 -58.94737 163 138 185
-13.68421 -66.31579 -58.94737 167 134 186
-12.63158 -67.36842 -60.00000 135 130 146
-12.63158 -67.36842 -58.94737 138 121 153
-12.63158 -66.31579 -60.00000 131 111 147
-12.63158 -66.31579 -58.94737 162 131 177
-13.68421 -67.36842 -57.89474 151 120 170
-13.68421 -67.36842 -56.84211 147 125 163
-13.68421 -66.31579 -57.89474 167 133 184
-13.68421 -66.31579 -56.84211 177 141 195
-13.68421 -65.26316 -58.94737 186 154 203
-13.68421 -64.21053 -58.94737 176 145 191
-12.63158 -65.26316 -60.00000 174 143 189
-12.63158 -65.26316 -58.94737 167 135 182
-12.63158 -64.21053 -60.00000 177 145 194
-12.63158 -64.21053 -58.94737 167 138 181
-13.68421 -65.26316 -57.89474 178 144 195
-13.68421 -65.26316 -56.84211 180 144 197
-13.68421 -64.21053 -57.89474 175 141 190
-13.68421 -64.21053 -56.84211 182 143 196
-14.73684 -67.36842 -55.78947 151 129 167
-14.73684 -67.36842 -54.73684 143 122 155
-14.73684 -66.31579 -55.78947 191 162 205
-14.73684 -66.31579 -54.73684 174 147 188
-15.78947 -67.36842 -53.68421 152 122 173
-15.78947 -67.36842 -52.63158 170 135 192
-15.78947 -66.31579 -52.63158 160 128 175
-14.73684 -67.36842 -53.68421 137 111 155
-14.73684 -67.36842 -52.63158 152 118 169
-14.73684 -66.31579 -53.68421 160 135 174
-14.73684 -66.31579 -52.63158 179 148 194
-14.73684 -65.26316 -54.73684 198 161 212
-14.73684 -64.21053 -55.78947 163 134 177
-14.73684 -64.21053 -54.73684 184 147 198
-14.73684 -65.26316 -53.68421 177 145 192
-14.73684 -65.26316 -52.63158 163 128 176
-14.73684 -64.21053 -53.68421 185 156 199
-14.73684 -64.21053 -52.63158 189 153 206
-13.68421 -67.36842 -55.78947 156 135 170
-13.68421 -66.31579 -55.78947 189 155 206
-13.68421 -65.26316 -55.78947 181 143 198
-13.68421 -64.21053 -55.78947 170 139 185
-13.68421 -63.15789 -58.94737 182 150 193
-13.68421 -62.10526 -58.94737 159 131 168
-12.63158 -63.15789 -60.00000 169 142 183
-12.63158 -63.15789 -58.94737 186 157 200
-12.63158 -62.10526 -60.00000 167 144 181
-12.63158 -62.10526 -58.94737 161 136 173
-13.68421 -63.15789 -57.89474 178 142 195
-13.68421 -63.15789 -56.84211 189 151 206
-13.68421 -62.10526 -57.89474 184 157 198
-13.68421 -62.10526 -56.84211 174 145 188
-12.63158 -61.05263 -60.00000 166 146 182
-12.63158 -61.05263 -58.94737 166 141 178
-12.63158 -60.00000 -60.00000 153 135 165
-12.63158 -60.00000 -58.94737 164 141 178
-13.68421 -61.05263 -57.89474 163 139 179
-13.68421 -61.05263 -56.84211 163 134 177
-13.68421 -60.00000 -57.89474 161 134 176
-13.68421 -60.00000 -56.84211 159 128 173
-14.73684 -63.15789 -55.78947 181 152 196
-14.73684 -63.15789 -54.73684 177 142 190
-14.73684 -62.10526 -55.78947 168 136 185
-14.73684 -62.10526 -54.73684 183 151 198
-14.73684 -63.15789 -53.68421 176 145 190
-14.73684 -63.15789 -52.63158 179 147 194
-14.73684 -62.10526 -53.68421 180 144 197
-14.73684 -62.10526 -52.63158 188 154 205
-14.73684 -61.05263 -55.78947 168 139 183
-14.73684 -61.05263 -54.73684 168 136 185
-14.73684 -60.00000 -55.78947 170 138 187
-14.73684 -60.00000 -54.73684 149 117 164
-14.73684 -61.05263 -53.68421 170 138 185
-14.73684 -61.05263 -52.63158 180 148 197
-14.73684 -60.00000 -53.68421 162 126 179
-14.73684 -60.00000 -52.63158 173 139 188
-13.68421 -63.15789 -55.78947 177 145 192
-13.68421 -62.10526 -55.78947 178 147 193
-13.68421 -61.05263 -55.78947 161 136 173
-13.68421 -60.00000 -55.78947 164 135 178
-18.94737 -67.36842 -48.42105 144 110 169
-18.94737 -66.31579 -48.42105 142 108 167
-17.89474 -67.36842 -50.52632 141 109 164
-17.89474 -66.31579 -50.52632 151 108 167
-16.84211 -67.36842 -51.57895 157 122 179
-16.84211 -67.36842 -50.52632 153 118 175
-16.84211 -66.31579 -50.52632 160 129 179
-17.89474 -67.36842 -49.47368 154 117 175
-17.89474 -67.36842 -48.42105 156 127 184
-17.89474 -66.31579 -49.47368 147 110 169
-17.89474 -66.31579 -48.42105 139 109 162
-16.84211 -66.31579 -49.47368 163 132 182
-16.84211 -65.26316 -50.52632 167 131 185
-17.89474 -65.26316 -49.47368 148 117 169
-17.89474 -65.26316 -48.42105 144 114 163
-16.84211 -65.26316 -49.47368 168 145 182
-16.84211 -65.26316 -48.42105 172 141 186
-20.00000 -67.36842 -46.31579 135 103 162
-20.00000 -66.31579 -46.31579 128 92 155
-18.94737 -67.36842 -47.36842 137 99 164
-18.94737 -67.36842 -46.31579 137 99 164
-18.94737 -66.31579 -47.36842 148 110 175
-18.94737 -66.31579 -46.31579 144 104 171
-20.00000 -67.36842 -45.26316 129 100 152
-20.00000 -66.31579 -45.26316 134 102 161
-20.00000 -66.31579 -44.21053 151 119 178
-18.94737 -65.26316 -47.36842 153 123 178
-18.94737 -65.26316 -46.31579 150 119 171
-20.00000 -65.26316 -45.26316 140 112 159
-20.00000 -65.26316 -44.21053 162 129 181
-18.94737 -65.26316 -45.26316 155 122 176
-18.94737 -65.26316 -44.21053 175 137 193
-17.89474 -65.26316 -47.36842 150 122 169
-17.89474 -65.26316 -46.31579 152 121 173
-17.89474 -64.21053 -46.31579 165 132 184
-16.84211 -65.26316 -47.36842 171 140 185
-16.84211 -65.26316 -46.31579 172 151 184
-16.84211 -64.21053 -47.36842 167 143 183
-16.84211 -64.21053 -46.31579 160 133 174
-17.89474 -65.26316 -45.26316 163 132 178
-17.89474 -65.26316 -44.21053 173 138 186
-17.89474 -64.21053 -45.26316 154 126 172
-17.89474 -64.21053 -44.21053 149 123 157
-16.84211 -64.21053 -45.26316 152 123 167
-16.84211 -64.21053 -44.21053 135 112 147
-15.78947 -67.36842 -51.57895 163 132 184
-15.78947 -66.31579 -51.57895 165 133 182
-15.78947 -66.31579 -50.52632 163 132 182
-14.73684 -66.31579 -51.57895 192 156 210
-15.78947 -65.26316 -50.52632 158 133 170
-15.78947 -64.21053 -50.52632 169 142 184
-14.73684 -65.26316 -51.57895 175 137 193
-14.73684 -65.26316 -50.52632 173 135 190
-14.73684 -64.21053 -51.57895 151 123 160
-14.73684 -64.21053 -50.52632 167 136 181
-15.78947 -65.26316 -49.47368 157 136 169
-15.78947 -65.26316 -48.42105 147 127 155
-15.78947 -64.21053 -49.47368 152 134 162
-15.78947 -64.21053 -48.42105 146 125 156
-15.78947 -64.21053 -47.36842 166 143 180
-15.78947 -64.21053 -46.31579 161 137 179
-15.78947 -64.21053 -45.26316 148 121 163
-15.78947 -64.21053 -44.21053 139 118 151
-15.78947 -63.15789 -50.52632 183 151 200
-15.78947 -62.10526 -50.52632 180 147 193
-14.73684 -63.15789 -51.57895 182 148 197
-14.73684 -63.15789 -50.52632 192 155 206
-14.73684 -62.10526 -51.57895 182 153 197
-14.73684 -62.10526 -50.52632 182 148 199
-15.78947 -63.15789 -49.47368 159 134 173
-15.78947 -63.15789 -48.42105 189 156 202
-15.78947 -62.10526 -49.47368 181 150 195
-15.78947 -62.10526 -48.42105 185 151 200
-15.78947 -61.05263 -51.57895 184 149 197
-15.78947 -61.05263 -50.52632 185 153 200
-15.78947 -60.00000 -51.57895 175 143 190
-15.78947 -60.00000 -50.52632 194 156 211
-14.73684 -61.05263 -51.57895 181 149 196
-14.73684 -60.00000 -51.57895 177 145 192
-15.78947 -61.05263 -49.47368 181 147 196
-15.78947 -61.05263 -48.42105 160 132 179
-15.78947 -60.00000 -49.47368 186 157 200
-15.78947 -60.00000 -48.42105 174 145 188
-15.78947 -63.15789 -47.36842 170 139 185
-15.78947 -63.15789 -46.31579 150 124 159
-15.78947 -62.10526 -47.36842 180 140 197
-15.78947 -62.10526 -46.31579 156 125 170
-15.78947 -63.15789 -45.26316 143 122 155
-15.78947 -63.15789 -44.21053 126 108 138
-15.78947 -62.10526 -45.26316 149 122 163
-15.78947 -62.10526 -44.21053 147 129 157
-15.78947 -61.05263 -47.36842 160 135 174
-15.78947 -61.05263 -46.31579 159 128 173
-15.78947 -60.00000 -47.36842 161 135 170
-15.78947 -60.00000 -46.31579 169 138 184
-15.78947 -61.05263 -45.26316 138 117 150
-15.78947 -61.05263 -44.21053 159 132 173
-15.78947 -60.00000 -45.26316 160 127 173
-15.78947 -60.00000 -44.21053 159 128 174
-9.47368 -91.57895 -65.26316 166 123 180
-8.42105 -92.63158 -65.26316 166 129 180
-8.42105 -91.57895 -65.26316 170 134 187
-9.47368 -90.52632 -65.26316 164 132 181
-9.47368 -89.47368 -65.26316 191 158 202
-8.42105 -90.52632 -65.26316 170 135 181
-8.42105 -89.47368 -65.26316 170 134 187
-10.52632 -92.63158 -64.21053 183 151 198
-10.52632 -92.63158 -63.15789 201 166 212
-10.52632 -91.57895 -64.21053 205 172 218
-10.52632 -91.57895 -63.15789 196 162 211
-11.57895 -92.63158 -62.10526 179 148 193
-11.57895 -92.63158 -61.05263 165 138 179
-11.57895 -91.57895 -62.10526 175 152 187
-11.57895 -91.57895 -61.05263 179 151 197
-10.52632 -92.63158 -62.10526 191 161 202
-10.52632 -91.57895 -62.10526 178 155 190
-10.52632 -90.52632 -64.21053 179 151 188
-10.52632 -90.52632 -63.15789 201 165 218
-10.52632 -89.47368 -64.21053 191 157 208
-10.52632 -89.47368 -63.15789 200 163 213
-11.57895 -90.52632 -62.10526 188 149 201
-11.57895 -90.52632 -61.05263 199 159 216
-11.57895 -89.47368 -62.10526 196 155 210
-11.57895 -89.47368 -61.05263 196 162 211
-10.52632 -90.52632 -62.10526 176 144 191
-10.52632 -89.47368 -62.10526 205 164 219
-9.47368 -92.63158 -64.21053 189 152 203
-9.47368 -91.57895 -64.21053 195 161 210
-8.42105 -92.63158 -64.21053 172 138 187
-9.47368 -90.52632 -64.21053 186 154 197
-9.47368 -89.47368 -64.21053 207 172 220
-9.47368 -88.42105 -65.26316 187 150 201
-9.47368 -87.36842 -65.26316 183 149 198
-8.42105 -88.42105 -66.31579 180 142 197
-8.42105 -88.42105 -65.26316 188 151 202
-8.42105 -87.36842 -66.31579 181 144 194
-8.42105 -87.36842 -65.26316 191 159 206
-9.47368 -86.31579 -65.26316 180 147 193
-9.47368 -85.26316 -65.26316 169 135 184
-8.42105 -86.31579 -66.31579 172 137 185
-8.42105 -86.31579 -65.26316 188 151 201
-8.42105 -85.26316 -66.31579 176 140 193
-8.42105 -85.26316 -65.26316 174 140 191
-10.52632 -88.42105 -64.21053 200 163 214
-10.52632 -88.42105 -63.15789 195 156 209
-10.52632 -87.36842 -64.21053 211 170 225
-10.52632 -87.36842 -63.15789 199 160 213
-11.57895 -88.42105 -62.10526 204 167 217
-11.57895 -88.42105 -61.05263 208 175 219
-11.57895 -87.36842 -62.10526 210 173 223
-11.57895 -87.36842 -61.05263 218 183 229
-10.52632 -88.42105 -62.10526 210 171 224
-10.52632 -87.36842 -62.10526 205 164 219
-10.52632 -86.31579 -64.21053 199 168 214
-10.52632 -86.31579 -63.15789 210 171 223
-10.52632 -85.26316 -64.21053 191 150 205
-10.52632 -85.26316 -63.15789 215 174 228
-11.57895 -86.31579 -62.10526 198 164 215
-11.57895 -86.31579 -61.05263 211 174 225
-11.57895 -85.26316 -62.10526 199 160 213
-11.57895 -85.26316 -61.05263 210 171 224
-10.52632 -86.31579 -62.10526 199 161 216
-10.52632 -85.26316 -62.10526 190 158 205
-9.47368 -88.42105 -64.21053 198 159 212
-9.47368 -87.36842 -64.21053 195 158 209
-9.47368 -86.31579 -64.21053 184 150 199
-9.47368 -85.26316 -64.21053 196 158 213
-7.36842 -92.63158 -65.26316 165 138 180
-7.36842 -91.57895 -65.26316 172 140 187
-6.31579 -92.63158 -65.26316 171 148 185
-6.31579 -91.57895 -65.26316 175 146 190
-7.36842 -90.52632 -66.31579 157 128 172
-7.36842 -90.52632 -65.26316 167 133 182
-7.36842 -89.47368 -66.31579 160 126 177
-7.36842 -89.47368 -65.26316 155 119 173
-6.31579 -90.52632 -66.31579 157 123 172
-6.31579 -90.52632 -65.26316 162 130 179
-6.31579 -89.47368 -66.31579 153 124 167
-5.26316 -92.63158 -65.26316 159 122 173
-5.26316 -91.57895 -65.26316 163 130 182
-4.21053 -92.63158 -65.26316 183 198 196
-4.21053 -91.57895 -65.26316 171 145 190
-5.26316 -90.52632 -66.31579 168 136 185
-5.26316 -90.52632 -65.26316 171 140 188
-5.26316 -89.47368 -66.31579 150 125 162
-4.21053 -90.52632 -66.31579 160 121 174
-4.21053 -90.52632 -65.26316 162 129 181
-4.21053 -89.47368 -66.31579 162 131 179
-6.31579 -92.63158 -64.21053 165 134 180
-5.26316 -92.63158 -64.21053 182 158 198
-4.21053 -92.63158 -64.21053 185 158 207
-4.21053 -91.57895 -64.21053 198 171 221
-6.31579 -87.36842 -67.36842 157 128 172
-7.36842 -88.42105 -66.31579 164 128 181
-7.36842 -87.36842 -66.31579 180 145 201
-6.31579 -88.42105 -66.31579 146 114 163
-6.31579 -87.36842 -66.31579 155 124 170
-6.31579 -86.31579 -67.36842 163 132 178
-6.31579 -85.26316 -67.36842 167 135 184
-7.36842 -86.31579 -66.31579 167 135 184
-7.36842 -85.26316 -66.31579 169 137 186
-6.31579 -86.31579 -66.31579 164 131 185
-6.31579 -85.26316 -66.31579 165 134 179
-5.26316 -88.42105 -67.36842 173 142 192
-5.26316 -87.36842 -67.36842 163 134 178
-4.21053 -88.42105 -67.36842 146 123 158
-4.21053 -87.36842 -67.36842 151 129 167
-5.26316 -88.42105 -66.31579 162 136 180
-4.21053 -88.42105 -66.31579 161 137 170
-5.26316 -86.31579 -67.36842 157 125 174
-5.26316 -85.26316 -67.36842 141 119 157
-4.21053 -86.31579 -67.36842 158 125 171
-4.21053 -85.26316 -68.42105 151 124 165
-4.21053 -85.26316 -67.36842 143 119 159
-4.21053 -78.94737 -69.47368 182 136 206
-5.26316 -76.84211 -69.47368 173 137 191
-4.21053 -77.89474 -69.47368 165 134 182
-4.21053 -76.84211 -69.47368 166 135 185
-9.47368 -84.21053 -65.26316 175 142 188
-9.47368 -83.15789 -65.26316 204 164 222
-8.42105 -84.21053 -66.31579 190 156 205
-8.42105 -84.21053 -65.26316 189 155 204
-8.42105 -83.15789 -66.31579 189 157 204
-8.42105 -83.15789 -65.26316 192 161 207
-9.47368 -82.10526 -65.26316 179 147 194
-9.47368 -81.05263 -65.26316 174 143 188
-8.42105 -82.10526 -66.31579 175 144 194
-8.42105 -82.10526 -65.26316 186 155 203
-8.42105 -81.05263 -66.31579 202 171 216
-8.42105 -81.05263 -65.26316 187 155 202
-10.52632 -84.21053 -64.21053 194 160 209
-10.52632 -84.21053 -63.15789 200 161 214
-10.52632 -83.15789 -64.21053 199 164 210
-10.52632 -83.15789 -63.15789 186 152 201
-11.57895 -84.21053 -61.05263 209 170 222
-11.57895 -83.15789 -61.05263 205 171 220
-10.52632 -84.21053 -62.10526 203 168 216
-10.52632 -83.15789 -62.10526 202 164 219
-10.52632 -82.10526 -64.21053 191 158 202
-10.52632 -82.10526 -63.15789 207 170 220
-10.52632 -81.05263 -64.21053 196 159 210
-10.52632 -81.05263 -63.15789 207 170 220
-11.57895 -82.10526 -61.05263 197 159 215
-11.57895 -81.05263 -61.05263 205 166 219
-10.52632 -82.10526 -62.10526 196 158 213
-10.52632 -82.10526 -61.05263 196 157 210
-10.52632 -81.05263 -62.10526 206 166 223
-10.52632 -81.05263 -61.05263 200 157 214
-9.47368 -84.21053 -64.21053 200 163 214
-9.47368 -83.15789 -64.21053 210 173 224
-9.47368 -82.10526 -64.21053 194 158 211
-9.47368 -81.05263 -64.21053 196 162 211
-9.47368 -80.00000 -65.26316 186 152 203
-9.47368 -78.94737 -65.26316 179 147 194
-8.42105 -80.00000 -66.31579 192 163 207
-8.42105 -80.00000 -65.26316 196 164 211
-8.42105 -78.94737 -66.31579 181 145 198
-8.42105 -78.94737 -65.26316 183 149 200
-9.47368 -77.89474 -65.26316 191 158 210
-9.47368 -76.84211 -65.26316 184 152 201
-8.42105 -77.89474 -66.31579 188 156 205
-8.42105 -77.89474 -65.26316 196 160 213
-8.42105 -76.84211 -66.31579 185 147 203
-8.42105 -76.84211 -65.26316 184 151 203
-10.52632 -80.00000 -64.21053 193 161 208
-10.52632 -80.00000 -63.15789 195 157 212
-10.52632 -78.94737 -64.21053 174 144 193
-10.52632 -78.94737 -63.15789 176 138 193
-11.57895 -80.00000 -61.05263 197 159 214
-11.57895 -78.94737 -61.05263 187 155 204
-10.52632 -80.00000 -62.10526 210 171 224
-10.52632 -80.00000 -61.05263 207 169 225
-10.52632 -78.94737 -62.10526 182 146 199
-10.52632 -78.94737 -61.05263 185 151 202
-10.52632 -77.89474 -64.21053 175 153 191
-10.52632 -77.89474 -63.15789 185 149 203
-10.52632 -76.84211 -64.21053 196 164 211
-10.52632 -76.84211 -63.15789 191 151 209
-11.57895 -77.89474 -61.05263 168 137 183
-11.57895 -76.84211 -61.05263 173 142 188
-10.52632 -77.89474 -62.10526 180 148 197
-10.52632 -77.89474 -61.05263 168 137 183
-10.52632 -76.84211 -62.10526 182 145 196
-10.52632 -76.84211 -61.05263 178 144 195
-9.47368 -80.00000 -64.21053 189 157 204
-9.47368 -78.94737 -64.21053 184 150 199
-9.47368 -77.89474 -64.21053 183 149 200
-9.47368 -76.84211 -64.21053 187 155 202
-6.31579 -84.21053 -67.36842 165 134 180
-6.31579 -83.15789 -67.36842 172 152 188
-7.36842 -84.21053 -66.31579 176 144 191
-7.36842 -83.15789 -66.31579 187 153 204
-6.31579 -84.21053 -66.31579 168 129 182
-7.36842 -82.10526 -67.36842 181 158 195
-7.36842 -81.05263 -67.36842 197 165 212
-6.31579 -82.10526 -67.36842 155 132 169
-6.31579 -81.05263 -67.36842 175 143 190
-7.36842 -82.10526 -66.31579 184 152 201
-7.36842 -81.05263 -66.31579 197 170 212
-5.26316 -84.21053 -67.36842 143 115 161
-5.26316 -83.15789 -68.42105 145 115 164
-5.26316 -83.15789 -67.36842 159 126 178
-4.21053 -84.21053 -68.42105 152 121 167
-4.21053 -84.21053 -67.36842 142 111 157
-4.21053 -83.15789 -68.42105 148 117 163
-5.26316 -82.10526 -68.42105 156 124 173
-5.26316 -82.10526 -67.36842 146 115 163
-5.26316 -81.05263 -68.42105 161 130 178
-5.26316 -81.05263 -67.36842 172 138 189
-4.21053 -82.10526 -68.42105 144 113 159
-4.21053 -81.05263 -68.42105 154 123 169
-7.36842 -80.00000 -67.36842 178 147 192
-7.36842 -78.94737 -67.36842 169 138 184
-6.31579 -80.00000 -67.36842 166 139 180
-6.31579 -78.94737 -68.42105 164 141 178
-6.31579 -78.94737 -67.36842 169 142 184
-7.36842 -80.00000 -66.31579 196 162 213
-7.36842 -78.94737 -66.31579 177 148 192
-7.36842 -77.89474 -67.36842 174 142 191
-7.36842 -76.84211 -67.36842 179 143 197
-6.31579 -77.89474 -68.42105 174 142 189
-6.31579 -77.89474 -67.36842 172 141 186
-6.31579 -76.84211 -68.42105 173 142 188
-6.31579 -76.84211 -67.36842 159 132 173
-7.36842 -77.89474 -66.31579 187 156 201
-7.36842 -76.84211 -66.31579 184 148 201
-5.26316 -80.00000 -68.42105 160 129 174
-5.26316 -80.00000 -67.36842 156 121 169
-5.26316 -78.94737 -68.42105 161 134 175
-4.21053 -80.00000 -68.42105 165 133 182
-4.21053 -78.94737 -68.42105 169 131 186
-5.26316 -77.89474 -68.42105 174 145 189
-5.26316 -76.84211 -68.42105 172 141 189
-4.21053 -77.89474 -68.42105 173 137 190
-4.21053 -76.84211 -68.42105 168 137 183
-3.15789 -91.57895 -65.26316 192 159 211
-2.10526 -91.57895 -65.26316 182 151 201
-3.15789 -90.52632 -66.31579 167 139 186
-3.15789 -90.52632 -65.26316 167 140 181
-3.15789 -89.47368 -66.31579 167 138 182
-2.10526 -90.52632 -66.31579 162 134 180
-2.10526 -90.52632 -65.26316 176 143 189
-2.10526 -89.47368 -66.31579 162 131 177
-1.05263 -90.52632 -65.26316 195 167 213
-1.05263 -89.47368 -66.31579 165 138 180
-1.05263 -89.47368 -65.26316 163 137 182
0.00000 -90.52632 -65.26316 163 134 178
0.00000 -89.47368 -66.31579 175 146 190
0.00000 -89.47368 -65.26316 177 146 192
-3.15789 -92.63158 -64.21053 184 149 205
-3.15789 -91.57895 -64.21053 194 158 211
-2.10526 -92.63158 -64.21053 180 140 197
-2.10526 -92.63158 -63.15789 179 143 196
-2.10526 -91.57895 -64.21053 181 145 198
-2.10526 -90.52632 -64.21053 200 169 215
-1.05263 -92.63158 -64.21053 182 148 199
-1.05263 -92.63158 -63.15789 184 148 201
-1.05263 -91.57895 -64.21053 177 143 192
0.00000 -92.63158 -64.21053 180 147 199
0.00000 -92.63158 -63.15789 174 138 191
0.00000 -91.57895 -64.21053 175 142 188
0.00000 -91.57895 -63.15789 174 137 188
0.00000 -92.63158 -62.10526 168 136 185
-1.05263 -90.52632 -64.21053 185 155 204
0.00000 -90.52632 -64.21053 172 140 187
-3.15789 -88.42105 -67.36842 159 125 174
-3.15789 -87.36842 -67.36842 151 124 165
-2.10526 -88.42105 -67.36842 174 141 193
-2.10526 -87.36842 -67.36842 176 142 193
-3.15789 -88.42105 -66.31579 164 132 181
-2.10526 -88.42105 -66.31579 159 131 177
-3.15789 -86.31579 -67.36842 148 124 164
-3.15789 -85.26316 -68.42105 146 119 160
-3.15789 -85.26316 -67.36842 141 116 153
-2.10526 -86.31579 -67.36842 164 135 179
-2.10526 -85.26316 -68.42105 143 111 158
-2.10526 -85.26316 -67.36842 164 140 180
-1.05263 -88.42105 -67.36842 177 144 196
-1.05263 -87.36842 -67.36842 169 142 184
0.00000 -87.36842 -67.36842 176 149 191
-1.05263 -88.42105 -66.31579 159 132 174
-1.05263 -87.36842 -66.31579 173 156 189
0.00000 -88.42105 -66.31579 170 139 184
0.00000 -87.36842 -66.31579 171 139 186
-1.05263 -86.31579 -67.36842 170 145 184
-1.05263 -85.26316 -68.42105 163 134 178
-1.05263 -85.26316 -67.36842 167 144 189
0.00000 -86.31579 -67.36842 171 146 183
0.00000 -85.26316 -68.42105 174 147 189
0.00000 -85.26316 -67.36842 175 146 189
1.05263 -90.52632 -65.26316 168 141 183
1.05263 -89.47368 -66.31579 179 148 193
1.05263 -89.47368 -65.26316 176 144 193
2.10526 -90.52632 -65.26316 169 138 186
2.10526 -89.47368 -65.26316 170 136 187
3.15789 -89.47368 -65.26316 173 136 187
4.21053 -89.47368 -65.26316 172 141 186
1.05263 -92.63158 -63.15789 167 136 181
1.05263 -91.57895 -64.21053 161 130 175
1.05263 -91.57895 -63.15789 166 135 180
2.10526 -91.57895 -63.15789 168 135 181
1.05263 -92.63158 -62.10526 176 141 189
2.10526 -92.63158 -62.10526 166 135 183
2.10526 -92.63158 -61.05263 155 134 167
2.10526 -91.57895 -62.10526 167 136 184
1.05263 -90.52632 -64.21053 172 140 189
1.05263 -90.52632 -63.15789 179 153 197
2.10526 -90.52632 -64.21053 172 138 189
2.10526 -90.52632 -63.15789 177 139 195
3.15789 -91.57895 -63.15789 171 140 185
4.21053 -91.57895 -63.15789 177 141 195
3.15789 -92.63158 -62.10526 166 144 182
3.15789 -92.63158 -61.05263 179 147 194
3.15789 -91.57895 -62.10526 162 135 176
4.21053 -92.63158 -62.10526 163 120 179
4.21053 -92.63158 -61.05263 179 143 196
4.21053 -91.57895 -62.10526 169 140 183
4.21053 -91.57895 -61.05263 164 129 175
3.15789 -90.52632 -64.21053 180 148 197
3.15789 -90.52632 -63.15789 166 138 184
3.15789 -89.47368 -64.21053 161 134 176
4.21053 -90.52632 -64.21053 160 129 175
4.21053 -90.52632 -63.15789 171 140 186
4.21053 -89.47368 -64.21053 161 132 175
4.21053 -90.52632 -62.10526 172 143 187
1.05263 -87.36842 -67.36842 179 147 194
2.10526 -87.36842 -67.36842 184 161 204
1.05263 -88.42105 -66.31579 159 130 174
1.05263 -88.42105 -65.26316 134 118 153
1.05263 -87.36842 -66.31579 176 145 191
2.10526 -88.42105 -66.31579 175 142 188
2.10526 -88.42105 -65.26316 175 148 190
2.10526 -87.36842 -66.31579 182 155 196
1.05263 -86.31579 -67.36842 179 152 194
1.05263 -85.26316 -68.42105 181 149 198
1.05263 -85.26316 -67.36842 189 158 206
2.10526 -86.31579 -67.36842 182 148 197
2.10526 -85.26316 -68.42105 183 151 198
2.10526 -85.26316 -67.36842 185 154 202
3.15789 -88.42105 -66.31579 179 146 200
3.15789 -88.42105 -65.26316 176 146 195
3.15789 -87.36842 -66.31579 170 139 184
4.21053 -88.42105 -66.31579 188 147 201
4.21053 -88.42105 -65.26316 171 138 190
4.21053 -87.36842 -66.31579 174 139 187
3.15789 -86.31579 -67.36842 182 148 199
3.15789 -85.26316 -68.42105 187 155 204
3.15789 -85.26316 -67.36842 180 148 197
4.21053 -86.31579 -67.36842 184 161 204
4.21053 -85.26316 -68.42105 188 154 205
4.21053 -85.26316 -67.36842 191 155 208
3.15789 -86.31579 -66.31579 172 132 192
4.21053 -86.31579 -66.31579 177 151 195
-3.15789 -81.05263 -69.47368 168 144 186
-2.10526 -82.10526 -69.47368 145 117 163
-2.10526 -81.05263 -69.47368 164 133 181
0.00000 -83.15789 -69.47368 185 157 204
-1.05263 -82.10526 -69.47368 163 136 186
-1.05263 -81.05263 -69.47368 159 127 176
0.00000 -82.10526 -69.47368 170 141 185
0.00000 -81.05263 -69.47368 149 123 167
-3.15789 -80.00000 -69.47368 159 128 174
-3.15789 -78.94737 -69.47368 164 131 183
-2.10526 -80.00000 -69.47368 170 138 185
-2.10526 -78.94737 -69.47368 155 123 172
-3.15789 -77.89474 -69.47368 155 123 172
-3.15789 -76.84211 -69.47368 146 115 165
-2.10526 -77.89474 -69.47368 150 120 169
-2.10526 -76.84211 -70.52632 144 113 165
-2.10526 -76.84211 -69.47368 153 120 174
-1.05263 -80.00000 -69.47368 165 133 182
-1.05263 -78.94737 -70.52632 143 112 162
-1.05263 -78.94737 -69.47368 157 121 174
0.00000 -80.00000 -70.52632 150 119 167
0.00000 -80.00000 -69.47368 148 117 165
0.00000 -78.94737 -70.52632 144 113 161
0.00000 -78.94737 -69.47368 150 118 167
-1.05263 -77.89474 -70.52632 143 112 162
-1.05263 -77.89474 -69.47368 146 114 163
-1.05263 -76.84211 -70.52632 154 117 176
0.00000 -77.89474 -70.52632 149 118 168
0.00000 -76.84211 -70.52632 145 114 164
1.05263 -83.15789 -69.47368 191 155 208
2.10526 -83.15789 -69.47368 189 165 205
1.05263 -82.10526 -69.47368 179 147 194
1.05263 -81.05263 -70.52632 165 141 181
1.05263 -81.05263 -69.47368 160 133 175
2.10526 -82.10526 -69.47368 196 159 209
2.10526 -81.05263 -70.52632 186 154 203
2.10526 -81.05263 -69.47368 180 144 197
3.15789 -83.15789 -69.47368 193 172 207
4.21053 -83.15789 -69.47368 210 178 225
3.15789 -82.10526 -69.47368 194 162 209
3.15789 -81.05263 -70.52632 202 163 216
3.15789 -81.05263 -69.47368 204 167 218
4.21053 -82.10526 -69.47368 195 152 211
4.21053 -81.05263 -70.52632 198 164 215
4.21053 -81.05263 -69.47368 199 167 216
1.05263 -80.00000 -70.52632 146 121 160
1.05263 -80.00000 -69.47368 146 122 162
1.05263 -78.94737 -70.52632 148 117 165
2.10526 -80.00000 -70.52632 165 136 180
2.10526 -78.94737 -70.52632 151 128 165
1.05263 -77.89474 -70.52632 139 110 154
1.05263 -76.84211 -70.52632 143 112 160
2.10526 -77.89474 -70.52632 149 118 168
2.10526 -76.84211 -70.52632 151 120 170
3.15789 -80.00000 -70.52632 184 152 199
3.15789 -78.94737 -70.52632 144 117 158
4.21053 -80.00000 -70.52632 183 149 198
4.21053 -78.94737 -70.52632 169 135 186
3.15789 -77.89474 -70.52632 147 119 165
3.15789 -76.84211 -70.52632 146 118 164
4.21053 -77.89474 -70.52632 152 124 170
4.21053 -76.84211 -70.52632 143 115 161
-3.15789 -84.21053 -68.42105 149 120 164
-3.15789 -83.15789 -68.42105 153 122 168
-2.10526 -84.21053 -68.42105 152 120 169
-2.10526 -83.15789 -68.42105 151 122 166
-3.15789 -82.10526 -68.42105 153 124 168
-3.15789 -81.05263 -68.42105 160 127 173
-2.10526 -82.10526 -68.42105 153 126 168
-2.10526 -81.05263 -68.42105 157 124 178
-1.05263 -84.21053 -68.42105 161 130 176
-1.05263 -83.15789 -68.42105 150 121 165
0.00000 -84.21053 -68.42105 172 140 189
0.00000 -83.15789 -68.42105 178 150 196
-1.05263 -82.10526 -68.42105 154 128 173
-3.15789 -80.00000 -68.42105 162 128 179
1.05263 -84.21053 -68.42105 181 151 200
1.05263 -83.15789 -68.42105 186 154 203
2.10526 -84.21053 -68.42105 198 169 213
2.10526 -83.15789 -68.42105 193 161 208
3.15789 -84.21053 -68.42105 196 165 211
3.15789 -83.15789 -68.42105 190 154 207
4.21053 -84.21053 -68.42105 184 152 199
4.21053 -83.15789 -68.42105 189 155 206
-11.57895 -87.36842 -60.00000 231 196 242
-11.57895 -86.31579 -60.00000 201 170 216
-11.57895 -85.26316 -60.00000 175 142 194
-11.57895 -84.21053 -60.00000 199 163 216
-11.57895 -83.15789 -60.00000 201 165 218
-11.57895 -82.10526 -60.00000 188 148 205
-11.57895 -81.05263 -60.00000 203 169 220
-11.57895 -80.00000 -60.00000 187 155 202
-11.57895 -78.94737 -60.00000 192 160 207
-11.57895 -78.94737 -58.94737 183 147 200
-11.57895 -77.89474 -60.00000 175 139 192
-11.57895 -77.89474 -58.94737 194 158 212
-11.57895 -76.84211 -60.00000 178 146 193
4.21053 -92.63158 -60.00000 170 141 184
4.21053 -92.63158 -44.21053 185 142 201
-6.31579 -72.63158 -69.47368 161 127 178
-5.26316 -75.78947 -69.47368 160 131 175
-5.26316 -74.73684 -69.47368 163 133 182
-4.21053 -75.78947 -69.47368 165 133 182
-4.21053 -74.73684 -69.47368 155 123 172
-5.26316 -73.68421 -69.47368 175 143 190
-5.26316 -72.63158 -69.47368 164 132 181
-4.21053 -73.68421 -69.47368 157 127 176
-4.21053 -72.63158 -69.47368 156 127 170
-6.31579 -71.57895 -69.47368 176 142 193
-6.31579 -70.52632 -69.47368 186 150 203
-7.36842 -68.42105 -69.47368 176 142 193
-6.31579 -69.47368 -69.47368 177 145 192
-6.31579 -68.42105 -69.47368 175 143 190
-5.26316 -71.57895 -69.47368 169 138 184
-5.26316 -70.52632 -69.47368 178 146 193
-4.21053 -71.57895 -70.52632 176 154 192
-4.21053 -71.57895 -69.47368 162 138 178
-4.21053 -70.52632 -70.52632 178 149 193
-4.21053 -70.52632 -69.47368 176 145 191
-5.26316 -69.47368 -70.52632 173 142 194
-5.26316 -69.47368 -69.47368 182 148 197
-5.26316 -68.42105 -70.52632 161 127 178
-5.26316 -68.42105 -69.47368 168 136 183
-4.21053 -69.47368 -70.52632 172 144 191
-4.21053 -69.47368 -69.47368 169 138 184
-4.21053 -68.42105 -70.52632 143 120 155
-10.52632 -72.63158 -65.26316 170 138 187
-8.42105 -75.78947 -67.36842 177 146 192
-8.42105 -74.73684 -67.36842 164 129 185
-9.47368 -75.78947 -65.26316 181 149 196
-9.47368 -74.73684 -66.31579 188 157 207
-9.47368 -74.73684 -65.26316 196 160 214
-8.42105 -75.78947 -66.31579 172 136 189
-8.42105 -75.78947 -65.26316 179 134 195
-8.42105 -74.73684 -66.31579 177 141 195
-8.42105 -74.73684 -65.26316 179 139 196
-8.42105 -73.68421 -67.36842 179 148 198
-8.42105 -72.63158 -67.36842 158 126 175
-9.47368 -73.68421 -66.31579 178 146 201
-9.47368 -73.68421 -65.26316 185 152 204
-9.47368 -72.63158 -66.31579 189 154 210
-9.47368 -72.63158 -65.26316 163 140 177
-8.42105 -73.68421 -66.31579 177 144 196
-8.42105 -72.63158 -66.31579 178 147 197
-10.52632 -75.78947 -64.21053 193 155 211
-10.52632 -75.78947 -63.15789 187 151 205
-10.52632 -74.73684 -64.21053 179 138 201
-10.52632 -74.73684 -63.15789 167 136 184
-11.57895 -75.78947 -61.05263 181 157 199
-11.57895 -74.73684 -61.05263 161 132 176
-10.52632 -75.78947 -62.10526 178 147 193
-10.52632 -75.78947 -61.05263 185 147 202
-10.52632 -74.73684 -62.10526 164 135 178
-10.52632 -73.68421 -64.21053 178 147 195
-10.52632 -73.68421 -63.15789 161 133 180
-10.52632 -72.63158 -64.21053 177 142 190
-10.52632 -72.63158 -63.15789 165 139 183
-11.57895 -73.68421 -61.05263 175 146 190
-11.57895 -72.63158 -62.10526 181 155 199
-11.57895 -72.63158 -61.05263 173 142 190
-10.52632 -73.68421 -62.10526 164 135 179
-10.52632 -72.63158 -62.10526 164 138 182
-9.47368 -75.78947 -64.21053 188 155 207
-9.47368 -74.73684 -64.21053 188 148 206
-10.52632 -71.57895 -65.26316 157 140 177
-10.52632 -70.52632 -65.26316 149 113 167
-10.52632 -69.47368 -65.26316 172 141 187
-10.52632 -68.42105 -65.26316 187 154 206
-8.42105 -71.57895 -67.36842 158 125 177
-8.42105 -70.52632 -67.36842 161 128 180
-9.47368 -71.57895 -66.31579 184 157 206
-9.47368 -71.57895 -65.26316 140 125 153
-9.47368 -70.52632 -66.31579 173 142 190
-9.47368 -70.52632 -65.26316 151 122 165
-8.42105 -71.57895 -66.31579 180 147 199
-8.42105 -70.52632 -66.31579 176 142 193
-9.47368 -69.47368 -67.36842 120 103 125
-9.47368 -68.42105 -67.36842 125 112 128
-8.42105 -69.47368 -68.42105 156 123 175
-8.42105 -69.47368 -67.36842 160 134 178
-8.42105 -68.42105 -68.42105 156 118 173
-8.42105 -68.42105 -67.36842 163 132 178
-9.47368 -69.47368 -66.31579 158 131 173
-9.47368 -69.47368 -65.26316 169 141 187
-9.47368 -68.42105 -66.31579 164 145 174
-9.47368 -68.42105 -65.26316 191 158 210
-10.52632 -71.57895 -64.21053 149 125 165
-10.52632 -71.57895 -63.15789 161 142 173
-10.52632 -70.52632 -64.21053 178 143 199
-10.52632 -70.52632 -63.15789 131 121 140
-11.57895 -71.57895 -62.10526 168 177 175
-11.57895 -71.57895 -61.05263 185 155 206
-11.57895 -70.52632 -62.10526 128 123 138
-11.57895 -70.52632 -61.05263 172 150 190
-10.52632 -71.57895 -62.10526 131 107 140
-10.52632 -70.52632 -62.10526 109 104 116
-10.52632 -69.47368 -64.21053 164 140 180
-10.52632 -69.47368 -63.15789 145 127 160
-10.52632 -68.42105 -64.21053 140 121 152
-10.52632 -68.42105 -63.15789 132 117 145
-11.57895 -69.47368 -62.10526 127 115 137
-11.57895 -69.47368 -61.05263 162 140 180
-11.57895 -68.42105 -62.10526 109 102 120
-11.57895 -68.42105 -61.05263 111 106 121
-10.52632 -69.47368 -62.10526 125 110 138
-10.52632 -68.42105 -62.10526 110 103 121
-7.36842 -75.78947 -67.36842 177 143 194
-7.36842 -74.73684 -68.42105 155 123 172
-7.36842 -74.73684 -67.36842 171 139 188
-6.31579 -75.78947 -68.42105 175 141 190
-6.31579 -75.78947 -67.36842 171 139 188
-6.31579 -74.73684 -68.42105 165 134 180
-7.36842 -75.78947 -66.31579 175 136 188
-7.36842 -73.68421 -68.42105 173 142 192
-7.36842 -73.68421 -67.36842 185 149 203
-7.36842 -72.63158 -68.42105 155 124 172
-7.36842 -72.63158 -67.36842 155 121 172
-6.31579 -73.68421 -68.42105 173 146 188
-6.31579 -72.63158 -68.42105 161 129 176
-5.26316 -75.78947 -68.42105 170 138 185
-5.26316 -74.73684 -68.42105 164 137 178
-5.26316 -73.68421 -68.42105 165 128 179
-7.36842 -71.57895 -68.42105 161 128 180
-7.36842 -71.57895 -67.36842 153 120 172
-7.36842 -70.52632 -68.42105 169 137 186
-7.36842 -70.52632 -67.36842 159 127 176
-6.31579 -71.57895 -68.42105 177 145 194
-6.31579 -70.52632 -68.42105 175 147 193
-7.36842 -69.47368 -68.42105 167 133 184
-7.36842 -68.42105 -68.42105 168 136 185
-6.31579 -69.47368 -68.42105 177 145 192
-7.36842 -67.36842 -69.47368 181 147 196
-7.36842 -66.31579 -69.47368 170 139 185
-6.31579 -67.36842 -69.47368 166 134 181
-6.31579 -66.31579 -69.47368 159 135 175
-7.36842 -65.26316 -69.47368 164 135 179
-7.36842 -64.21053 -69.47368 157 128 172
-6.31579 -65.26316 -69.47368 160 131 175
-6.31579 -64.21053 -70.52632 173 140 186
-6.31579 -64.21053 -69.47368 162 138 178
-5.26316 -67.36842 -70.52632 145 117 163
-5.26316 -67.36842 -69.47368 155 128 170
-5.26316 -66.31579 -70.52632 140 110 149
-5.26316 -66.31579 -69.47368 155 128 170
-4.21053 -67.36842 -70.52632 142 118 158
-4.21053 -66.31579 -70.52632 135 112 147
-5.26316 -65.26316 -70.52632 142 120 150
-5.26316 -65.26316 -69.47368 149 128 161
-5.26316 -64.21053 -70.52632 162 133 177
-4.21053 -65.26316 -70.52632 132 107 146
-4.21053 -64.21053 -70.52632 155 122 168
-7.36842 -63.15789 -69.47368 134 115 146
-7.36842 -62.10526 -69.47368 147 128 159
-6.31579 -63.15789 -70.52632 176 149 190
-6.31579 -63.15789 -69.47368 148 127 160
-6.31579 -62.10526 -70.52632 153 124 167
-6.31579 -62.10526 -69.47368 153 128 167
-7.36842 -61.05263 -69.47368 140 121 152
-7.36842 -60.00000 -69.47368 155 132 169
-6.31579 -61.05263 -70.52632 125 104 135
-6.31579 -61.05263 -69.47368 139 121 154
-6.31579 -60.00000 -70.52632 144 124 160
-6.31579 -60.00000 -69.47368 146 129 162
-5.26316 -63.15789 -70.52632 167 136 184
-5.26316 -62.10526 -70.52632 154 130 170
-4.21053 -63.15789 -70.52632 138 112 147
-4.21053 -62.10526 -70.52632 160 130 171
-5.26316 -61.05263 -70.52632 145 120 159
-5.26316 -60.00000 -70.52632 127 101 145
-4.21053 -61.05263 -70.52632 158 131 173
-4.21053 -60.00000 -70.52632 147 122 159
-10.52632 -67.36842 -65.26316 174 140 189
-10.52632 -66.31579 -66.31579 169 136 188
-10.52632 -66.31579 -65.26316 170 139 187
-10.52632 -65.26316 -66.31579 157 126 171
-10.52632 -65.26316 -65.26316 153 135 169
-10.52632 -64.21053 -66.31579 156 136 172
-10.52632 -64.21053 -65.26316 155 131 171
-9.47368 -67.36842 -67.36842 146 117 160
-9.47368 -66.31579 -67.36842 158 129 173
-8.42105 -67.36842 -68.42105 163 125 181
-8.42105 -67.36842 -67.36842 162 135 176
-8.42105 -66.31579 -68.42105 163 132 182
-8.42105 -66.31579 -67.36842 162 131 179
-9.47368 -67.36842 -66.31579 168 139 183
-9.47368 -67.36842 -65.26316 180 148 197
-9.47368 -66.31579 -66.31579 174 140 191
-9.47368 -65.26316 -67.36842 167 140 182
-9.47368 -64.21053 -67.36842 171 139 188
-8.42105 -65.26316 -68.42105 159 125 174
-8.42105 -65.26316 -67.36842 153 128 165
-8.42105 -64.21053 -68.42105 168 132 186
-8.42105 -64.21053 -67.36842 169 136 188
-9.47368 -65.26316 -66.31579 168 136 185
-9.47368 -64.21053 -66.31579 159 135 177
-11.57895 -67.36842 -63.15789 128 121 139
-11.57895 -66.31579 -63.15789 111 109 122
-10.52632 -67.36842 -64.21053 121 102 131
-10.52632 -67.36842 -63.15789 125 109 135
-10.52632 -66.31579 -64.21053 123 109 133
-10.52632 -66.31579 -63.15789 106 99 117
-11.57895 -67.36842 -62.10526 112 103 125
-11.57895 -67.36842 -61.05263 112 108 123
-11.57895 -66.31579 -62.10526 108 103 119
-11.57895 -66.31579 -61.05263 101 97 112
-10.52632 -67.36842 -62.10526 109 101 118
-11.57895 -65.26316 -63.15789 99 93 106
-11.57895 -64.21053 -63.15789 106 95 119
-10.52632 -65.26316 -64.21053 133 126 146
-10.52632 -65.26316 -63.15789 107 100 118
-10.52632 -64.21053 -64.21053 143 125 155
-10.52632 -64.21053 -63.15789 121 110 134
-11.57895 -65.26316 -62.10526 99 94 110
-11.57895 -65.26316 -61.05263 120 96 136
-11.57895 -64.21053 -62.10526 140 120 156
-11.57895 -64.21053 -61.05263 159 130 174
-10.52632 -63.15789 -66.31579 154 125 169
-10.52632 -63.15789 -65.26316 150 133 165
-10.52632 -62.10526 -66.31579 141 134 154
-10.52632 -62.10526 -65.26316 138 121 153
-10.52632 -61.05263 -66.31579 146 115 165
-10.52632 -61.05263 -65.26316 153 131 171
-10.52632 -60.00000 -66.31579 161 138 173
-10.52632 -60.00000 -65.26316 159 132 173
-9.47368 -63.15789 -67.36842 151 128 165
-9.47368 -62.10526 -67.36842 148 124 164
-8.42105 -63.15789 -68.42105 149 118 166
-8.42105 -63.15789 -67.36842 160 128 177
-8.42105 -62.10526 -68.42105 154 127 169
-8.42105 -62.10526 -67.36842 159 138 173
-9.47368 -63.15789 -66.31579 150 129 164
-9.47368 -62.10526 -66.31579 148 134 158
-9.47368 -61.05263 -67.36842 169 141 187
-9.47368 -60.00000 -68.42105 126 79 138
-9.47368 -60.00000 -67.36842 161 140 175
-8.42105 -61.05263 -68.42105 151 120 168
-8.42105 -60.00000 -68.42105 136 113 150
-9.47368 -61.05263 -66.31579 154 123 171
-9.47368 -60.00000 -66.31579 163 139 179
-11.57895 -63.15789 -63.15789 140 125 153
-11.57895 -62.10526 -63.15789 152 130 170
-10.52632 -63.15789 -64.21053 155 134 167
-10.52632 -63.15789 -63.15789 149 134 162
-10.52632 -62.10526 -64.21053 155 134 169
-10.52632 -62.10526 -63.15789 144 127 159
-11.57895 -63.15789 -62.10526 157 134 171
-11.57895 -63.15789 -61.05263 165 138 179
-11.57895 -62.10526 -62.10526 153 135 163
-11.57895 -62.10526 -61.05263 163 140 177
-11.57895 -61.05263 -63.15789 153 132 167
-11.57895 -60.00000 -63.15789 116 112 126
-10.52632 -61.05263 -64.21053 148 133 161
-10.52632 -61.05263 -63.15789 143 126 158
-10.52632 -60.00000 -64.21053 161 136 175
-10.52632 -60.00000 -63.15789 145 136 158
-11.57895 -61.05263 -62.10526 156 137 166
-11.57895 -61.05263 -61.05263 162 143 174
-11.57895 -60.00000 -62.10526 136 123 149
-11.57895 -60.00000 -61.05263 140 122 152
-7.36842 -67.36842 -68.42105 166 135 185
-7.36842 -66.31579 -68.42105 169 135 186
-7.36842 -65.26316 -68.42105 161 129 178
-7.36842 -64.21053 -68.42105 154 120 169
-7.36842 -63.15789 -68.42105 151 124 166
-7.36842 -62.10526 -68.42105 155 131 173
-3.15789 -75.78947 -69.47368 155 123 172
-3.15789 -74.73684 -70.52632 161 127 176
-3.15789 -74.73684 -69.47368 160 126 177
-2.10526 -75.78947 -70.52632 148 112 166
-2.10526 -75.78947 -69.47368 144 113 163
-2.10526 -74.73684 -70.52632 156 123 175
-3.15789 -73.68421 -70.52632 145 116 159
-3.15789 -73.68421 -69.47368 150 118 165
-3.15789 -72.63158 -70.52632 155 124 170
-3.15789 -72.63158 -69.47368 151 127 167
-2.10526 -73.68421 -70.52632 155 119 173
-2.10526 -72.63158 -70.52632 139 114 153
-1.05263 -75.78947 -70.52632 152 119 171
-1.05263 -74.73684 -70.52632 148 120 166
0.00000 -75.78947 -70.52632 152 119 171
0.00000 -74.73684 -70.52632 153 119 170
-1.05263 -73.68421 -70.52632 151 120 170
-1.05263 -72.63158 -70.52632 147 123 165
0.00000 -73.68421 -70.52632 154 122 171
0.00000 -72.63158 -70.52632 145 114 160
-3.15789 -71.57895 -70.52632 155 124 170
-3.15789 -70.52632 -70.52632 160 132 178
-2.10526 -71.57895 -70.52632 140 113 155
-2.10526 -70.52632 -70.52632 134 111 148
-3.15789 -69.47368 -70.52632 161 130 175
-3.15789 -68.42105 -70.52632 146 122 164
-2.10526 -69.47368 -70.52632 139 114 153
-2.10526 -68.42105 -70.52632 125 106 137
-1.05263 -71.57895 -70.52632 148 117 163
-1.05263 -70.52632 -70.52632 146 120 164
0.00000 -71.57895 -70.52632 143 115 154
0.00000 -70.52632 -70.52632 141 114 155
-1.05263 -69.47368 -70.52632 145 118 160
-1.05263 -68.42105 -70.52632 127 103 136
0.00000 -69.47368 -70.52632 128 107 142
0.00000 -68.42105 -70.52632 133 116 152
1.05263 -75.78947 -70.52632 149 117 166
1.05263 -74.73684 -70.52632 151 119 168
2.10526 -75.78947 -70.52632 156 125 175
2.10526 -74.73684 -70.52632 149 119 168
1.05263 -73.68421 -70.52632 146 115 161
1.05263 -72.63158 -70.52632 148 124 166
2.10526 -73.68421 -70.52632 152 121 167
2.10526 -72.63158 -70.52632 146 115 161
3.15789 -75.78947 -70.52632 143 109 160
3.15789 -74.73684 -70.52632 140 112 158
4.21053 -75.78947 -70.52632 143 115 161
4.21053 -74.73684 -70.52632 141 119 157
3.15789 -73.68421 -70.52632 151 119 168
3.15789 -72.63158 -70.52632 153 119 168
4.21053 -73.68421 -70.52632 141 113 159
4.21053 -72.63158 -70.52632 146 115 161
1.05263 -71.57895 -70.52632 143 116 158
1.05263 -70.52632 -70.52632 133 111 149
2.10526 -71.57895 -70.52632 142 117 156
2.10526 -70.52632 -70.52632 129 111 144
1.05263 -69.47368 -70.52632 131 109 149
1.05263 -68.42105 -70.52632 141 119 159
2.10526 -69.47368 -70.52632 135 116 155
2.10526 -68.42105 -70.52632 136 112 152
4.21053 -71.57895 -71.57895 117 102 132
4.21053 -70.52632 -71.57895 129 109 145
3.15789 -71.57895 -70.52632 133 114 143
3.15789 -70.52632 -70.52632 130 110 146
4.21053 -71.57895 -70.52632 127 109 139
4.21053 -70.52632 -70.52632 143 125 158
3.15789 -69.47368 -71.57895 134 106 152
3.15789 -68.42105 -71.57895 133 107 152
4.21053 -69.47368 -71.57895 136 109 151
4.21053 -68.42105 -71.57895 141 112 155
3.15789 -69.47368 -70.52632 144 118 162
3.15789 -68.42105 -70.52632 128 103 142
-3.15789 -67.36842 -70.52632 129 106 143
-3.15789 -66.31579 -70.52632 118 103 133
-2.10526 -67.36842 -70.52632 118 101 133
-2.10526 -66.31579 -70.52632 127 113 144
-3.15789 -65.26316 -70.52632 126 112 143
-3.15789 -64.21053 -70.52632 148 126 166
-2.10526 -65.26316 -70.52632 136 124 153
-2.10526 -64.21053 -70.52632 139 116 153
-1.05263 -67.36842 -70.52632 128 120 145
-1.05263 -66.31579 -70.52632 147 127 165
0.00000 -67.36842 -70.52632 141 120 155
0.00000 -66.31579 -70.52632 140 120 158
-1.05263 -65.26316 -70.52632 140 115 154
-1.05263 -64.21053 -70.52632 137 111 155
0.00000 -65.26316 -70.52632 130 104 148
0.00000 -64.21053 -70.52632 143 115 161
-3.15789 -63.15789 -70.52632 143 123 159
-3.15789 -62.10526 -70.52632 152 125 167
-2.10526 -63.15789 -70.52632 144 116 162
-2.10526 -62.10526 -70.52632 152 121 171
-3.15789 -61.05263 -70.52632 157 127 176
-3.15789 -60.00000 -70.52632 158 125 177
-2.10526 -61.05263 -70.52632 158 126 175
-2.10526 -60.00000 -70.52632 160 126 177
-1.05263 -63.15789 -70.52632 153 123 172
-1.05263 -62.10526 -70.52632 152 120 169
0.00000 -63.15789 -70.52632 141 112 156
0.00000 -62.10526 -70.52632 130 105 144
-1.05263 -61.05263 -70.52632 138 102 155
-1.05263 -60.00000 -70.52632 129 98 146
0.00000 -61.05263 -70.52632 129 108 143
0.00000 -60.00000 -70.52632 134 111 146
2.10526 -67.36842 -71.57895 142 126 165
1.05263 -67.36842 -70.52632 133 117 156
1.05263 -66.31579 -70.52632 147 120 162
2.10526 -67.36842 -70.52632 150 124 168
2.10526 -66.31579 -70.52632 125 101 141
1.05263 -65.26316 -70.52632 132 100 147
1.05263 -64.21053 -70.52632 126 105 140
2.10526 -65.26316 -70.52632 124 98 142
2.10526 -64.21053 -70.52632 123 102 135
3.15789 -67.36842 -71.57895 134 106 153
3.15789 -66.31579 -71.57895 126 96 149
4.21053 -67.36842 -71.57895 123 94 146
3.15789 -67.36842 -70.52632 156 139 175
3.15789 -66.31579 -70.52632 126 101 149
4.21053 -67.36842 -70.52632 120 97 143
